# .PCD v0.7 - Point Cloud Data file format
VERSION 0.7
FIELDS x y z
SIZE 4 4 4
TYPE F F F
COUNT 1 1 1
WIDTH 457
HEIGHT 1
VIEWPOINT 0 0 0 1 0 0 0
POINTS 457
DATA ascii
5.3662648 -3.0866487 -22.650194
5.3653417 -2.5009046 -22.699507
3.6629417 -2.5543411 -21.315601
3.0504014 -2.56095 -21.043018
3.3554037 -2.5574217 -21.172287
3.1985824 -1.9800925 -21.196659
3.1743858 -1.3392605 -21.13623
6.596406 1.1361538 -21.096802
7.0909047 1.1924334 -21.18438
7.0093694 1.1046188 -20.310387
7.3936644 1.1318283 -20.070028
4.9729204 0.90449548 -19.867535
4.931757 0.84746796 -19.361593
5.42769 0.88669306 -19.323364
7.3923063 1.0745472 -19.551777
17.59318 -1.9068153 -19.087179
18.004644 -1.8440261 -19.167061
4.8266134 0.77890563 -19.137291
5.4798307 0.85378885 -18.945585
5.9535923 0.88289046 -18.806923
7.698103 1.0814865 -19.134098
17.045216 1.4148618 -18.93997
17.299564 1.5738263 -19.146864
17.033224 1.6247036 -18.895592
3.7987001 0.68914312 -18.583601
5.2754388 0.76466751 -18.614937
5.7446074 0.82299727 -18.546753
7.7390079 1.0446999 -18.798477
16.769447 1.392369 -18.625477
16.841007 1.4240004 -18.715866
16.947363 1.6739502 -18.738232
18.42498 -1.7976589 -18.304352
4.1787286 0.65294152 -18.148321
5.704031 0.751104 -18.108242
5.8414164 0.81337678 -18.264563
6.3206253 0.84029067 -18.037973
17.317875 1.7138155 -18.027966
18.899872 1.860993 -18.046217
19.054653 -1.7159344 -17.722967
6.1183891 0.79323316 -17.883314
6.292346 0.80108941 -17.816654
16.950207 1.6615636 -17.802834
17.881155 1.776902 -17.62542
18.301908 1.8317564 -17.816799
18.804924 -1.7531404 -17.463837
19.586842 -1.7201679 -17.422628
6.1063399 0.73724604 -17.593025
6.4754314 0.76611459 -17.273445
16.907434 1.7284439 -17.436966
17.653795 1.7526591 -17.459175
18.209225 1.8064387 -17.382837
18.522793 1.8643653 -17.51227
17.695084 -1.843019 -16.988546
18.580959 -1.776257 -16.869293
6.4992018 0.72498012 -17.11636
16.930132 1.7123426 -16.869234
17.399523 1.7592044 -17.06056
17.743223 1.8124532 -16.88652
17.472662 -1.8360027 -16.722557
19.306801 -1.6684864 -16.777935
6.8458061 0.72713447 -16.677433
16.684488 1.7280004 -16.527981
17.380051 1.7644914 -16.749546
18.106171 -1.7780371 -16.116348
19.042418 -1.6762027 -16.312559
19.832565 -1.6320715 -16.142946
16.665274 1.7160032 -16.227842
17.011299 1.7629671 -16.289125
19.028736 -1.6774768 -15.659025
19.376192 -1.6079221 -15.719356
20.441826 -1.518005 -15.718196
7.976769 -0.73265821 -15.975315
5.9700422 0.52632165 -15.742804
6.1956749 0.55784774 -15.712605
17.733648 -1.7386483 -15.532593
18.1938 -1.6795661 -15.289194
19.24902 -1.6075956 -15.263346
5.9296689 0.4819552 -15.56995
6.3197584 0.49475271 -15.309076
-17.255409 1.7948024 -15.214329
18.390694 -1.6780404 -14.904478
20.084257 -1.5658309 -15.10734
20.635042 -1.4852784 -14.974496
20.867496 -1.5054791 -15.043999
19.321312 -1.5429482 -14.669657
5.8508897 0.31393561 -14.650897
17.911449 -1.6333954 -14.292248
20.255547 -1.4925624 -14.01193
20.742977 -1.43871 -14.10817
18.21335 -1.569209 -13.957729
19.267218 -1.4826055 -13.707272
20.330574 -1.4127448 -13.72542
20.738861 -1.4151452 -13.685926
36.742519 1.6406522 -13.620121
18.128319 -1.5246189 -13.419281
18.493641 -1.532056 -13.26842
18.968651 -1.4844975 -13.384888
16.295546 1.4899441 -13.235872
17.975323 -1.5100912 -12.921592
18.261206 -1.4853449 -12.888133
19.380438 -1.4289894 -13.041168
19.774414 -1.4003932 -12.812764
20.318943 -1.3919272 -12.870945
20.688015 -1.3714094 -12.944777
18.846949 -1.442199 -12.635769
19.301132 -1.4175686 -12.73617
20.78941 -1.3682872 -12.708181
16.887745 -1.5140238 -12.176455
18.03953 -1.4318477 -12.311098
18.641022 -1.4352922 -12.118069
19.417473 -1.3739681 -12.312162
16.303211 1.5758717 -12.228851
18.143959 -1.4047011 -11.808031
18.796349 -1.3539367 -11.690454
16.306334 1.5923045 -11.932256
16.423811 1.640537 -11.708297
5.1214437 2.0908089 -11.824018
5.3080583 2.1128342 -11.825654
17.189617 -1.3991003 -11.321451
17.94643 -1.3491852 -11.319687
16.275015 1.6965544 -11.407092
16.502195 1.7077941 -11.298173
-1.5236142 3.794625 -11.127149
16.864193 -1.3433715 -10.574862
17.021725 -1.3000133 -10.223389
17.334101 -1.2757833 -10.369102
42.378441 1.7978241 -10.252827
6.4747319 -3.4468749 -8.2405987
8.6003437 -2.2414498 -7.9268475
14.05612 -2.7875602 -7.262249
24.345764 0.041724414 -0.1140275
-16.3524 -3.8394144 2.3624761
-16.320478 -3.3622694 2.241606
-16.319517 -3.107079 2.3024554
-16.351954 0.4642947 2.399158
-16.367931 -3.7295141 2.5411909
-16.370743 -3.4926584 2.6371634
-16.40453 0.6591534 2.6234605
-16.37553 0.61074227 2.5553157
-15.937696 0.92185378 2.6798086
-16.44128 -3.8337879 3.1068892
-16.42812 -3.5250015 3.0271335
-15.967735 -4.2817574 3.55178
-16.462502 -3.8321652 3.3425674
-10.652421 -1.645499 3.5618253
-10.964144 -1.4921237 3.4788933
-10.051907 -1.449103 3.5857258
-10.874337 -1.1565289 3.5095143
-10.676913 -0.66785789 3.5228481
-11.638107 -0.37934965 3.4485452
-10.662956 -0.23412652 3.5447569
-11.524338 0.21035624 3.4917417
-10.712181 0.23445809 3.5210199
-15.808421 0.89696944 3.2009215
-13.662271 0.91422796 3.229876
-16.515326 -3.7284012 3.7510774
-16.516773 -3.4328492 3.7037187
-9.9730749 -1.6783133 3.7438626
-9.0563383 -1.9769542 3.7065306
-10.01907 -1.2017546 3.6028509
2.2390566 -0.51902151 3.9351525
-10.381983 0.7551142 3.6868198
-15.658891 0.87199306 3.711118
-13.529109 0.88846862 3.6783526
-11.950406 0.90268254 3.6323576
-10.650444 0.89730704 3.9482379
-16.45286 -3.0545769 4.2153273
-14.525861 -2.8758759 4.3742032
-14.537825 -2.4234467 4.2798815
-14.553836 -2.2032893 4.3214283
-14.565242 -1.7924156 4.3019094
-14.56018 -1.3709321 4.2791138
-14.561335 -0.92435968 4.297699
-14.555966 -0.60143775 4.3420253
-14.573867 -0.2603893 4.2994905
-14.566456 0.11963923 4.3542538
-15.486704 0.83366406 4.2938776
-13.946439 0.91238415 4.0180387
-11.862577 0.8747943 4.1953316
-16.679394 -2.6121793 4.5994277
-14.622337 -2.069006 4.6542072
-14.626832 -1.6908525 4.6518989
-12.398233 -1.7437594 4.5899959
-11.247765 -1.7100565 4.7663922
-10.358852 -1.7317352 4.7737226
-14.631679 -1.0943283 4.5478249
-14.642337 -0.51590407 4.6154456
-14.646298 -0.19090895 4.6839356
-14.621158 0.2247164 4.5605254
-14.623002 0.54681492 4.5704145
-15.35478 0.82575202 4.6895123
-13.294266 0.835168 4.5551434
-11.708313 0.83725411 4.7347183
-14.65202 -1.6769422 5.0383248
-12.500803 -1.760514 4.9514089
-10.524185 -1.7407624 5.1779995
-14.564259 -1.2508142 5.0747662
-14.560967 -0.90286005 5.0853353
-14.605175 -0.16922134 5.1433411
-14.535326 0.30513284 5.1998124
-16.535551 0.62993842 5.0229826
-15.299801 0.795995 4.8542604
-13.258742 0.83065104 4.9310918
-13.135196 0.80305552 4.9867945
-11.655666 0.82818651 5.1050816
-11.339993 -2.2814922 5.3424535
-11.447118 -1.8143532 5.3095913
-16.81284 -1.5298225 5.3109202
-12.303066 -1.3050008 5.2333398
-11.547928 -1.3030756 5.3612018
-10.88179 -1.4107829 5.4065647
-16.775799 -1.1798141 5.3015475
-12.378827 -0.87330854 5.2455521
-11.688938 -1.0434091 5.3642821
-16.814663 -0.72930574 5.3304024
-11.797188 -0.59699833 5.3727789
-16.814468 -0.37657815 5.3241301
-11.90818 -0.07499826 5.3811665
12.617804 -0.31912977 5.4844236
-16.820225 0.068439275 5.3320189
-12.025267 0.27989164 5.3896976
-11.450643 0.39958331 5.457839
-12.154407 0.64199054 5.3955855
-11.465806 0.73494148 5.464437
-11.568181 0.80523098 5.2422314
9.6771231 -0.84803444 13.271116
-5.078866 2.9367731 17.365553
-2.0259035 -1.077886 19.893337
10.209509 -1.003051 20.763222
-0.16228771 -1.1277442 20.869148
6.1351118 -3.7707994 21.255438
-38.458134 -1.898518 28.550253
-38.493172 -0.89725816 28.650524
-38.406776 -0.65409422 28.532187
-38.290985 -0.62132645 28.765987
-38.461929 0.17860377 28.575653
-38.391563 0.43033147 28.595617
-14.898549 -2.880939 28.996473
-12.91715 -2.8597174 29.106659
-12.081628 -2.8941264 28.981871
-11.65956 -2.8571377 29.194277
-11.023985 -2.8538275 29.104963
-9.801506 -2.861016 28.990414
-8.9506617 -2.848506 28.97422
20.948994 -2.802722 28.983313
21.688915 -2.8235981 29.071005
-30.822159 -2.7573407 28.941467
-30.636593 -2.7603951 29.162279
22.408171 -2.6006765 29.109068
-9.8334637 -2.2490296 28.801985
-30.861786 -1.8744901 28.989979
-10.211994 -1.8698926 28.815012
-10.177391 -1.4716237 28.839075
-10.202995 -1.0715746 28.862186
-10.200842 -0.67392701 28.885647
-38.301567 -0.055275559 28.824409
-30.767021 -0.10341609 29.08699
-38.543095 0.16843724 28.843359
-8.5698395 0.36294329 28.912533
-38.262691 0.4114095 28.868008
-18.522076 -2.8585205 29.360809
-17.130413 -2.9140465 29.593706
-16.146055 -2.9096253 29.418041
-15.423177 -2.8803151 29.216248
-14.582825 -2.8898058 29.392588
-13.705984 -2.8830054 29.339006
-12.673151 -2.8824129 29.228506
-30.506659 -2.6582973 29.519226
22.386755 -2.533879 29.304581
-38.339787 -2.2281568 29.408529
-38.317757 -1.5938127 29.458996
-38.33799 -1.0117434 29.503256
-38.317417 -0.37789285 29.553715
-30.584972 -0.2347666 29.330505
-38.335709 0.30367678 29.436605
-30.490902 0.077205658 29.58234
-30.564175 -2.8724091 29.961777
-15.384521 -2.9029298 29.788536
-14.644733 -2.9051778 29.756783
-13.707146 -2.9063616 29.838169
-13.024867 -2.8750176 29.78418
-12.718748 -2.9100478 29.681988
-30.653006 -2.6367517 29.899845
-30.348848 -2.6103451 29.875158
-30.331196 -0.066136241 29.966522
-30.37204 0.061668634 29.803507
-30.638321 -2.8890302 30.277451
-23.234314 -2.9232364 30.384731
-19.389975 -2.9249551 30.389359
-18.589951 -2.89325 30.036179
-17.080679 -2.9377317 30.174868
-16.162252 -2.9420776 30.048475
-30.640396 -2.4884491 30.184633
-30.315849 -2.6336865 30.160215
-30.640125 -0.002908349 30.301476
-30.328419 -0.084063888 30.221575
-30.515789 0.00017845631 30.087694
-30.384689 0.051177979 30.026537
-18.495911 -2.917037 30.701988
-17.288513 -2.8837023 30.643066
-17.083157 -2.9671226 30.764185
-16.016382 -2.9430635 30.632576
-40.856403 -2.6785908 30.530497
-15.411121 -0.68178374 30.622988
-30.454922 -0.098210096 30.482149
-13.661036 -2.9516342 30.839003
-12.972445 -2.8981414 30.831196
-14.859425 -0.92330736 30.937027
-14.686091 -0.92707109 30.960743
-14.819981 -0.54091483 30.916645
-14.661934 -0.55624098 31.014267
-18.514019 -2.9501832 31.381542
-17.244251 -2.9080067 31.213594
-14.321509 -1.3939221 31.570873
-15.201258 -0.81402612 31.372929
-14.569632 -0.99763995 31.359934
-14.376714 -0.93752372 31.516357
-15.138653 -0.62085199 31.378538
-14.631149 -0.64223516 31.339396
-14.371017 -0.59794837 31.540976
22.054888 -4.1555328 31.695845
-44.000206 -2.9658833 31.754768
-20.366028 -2.901207 31.819227
-14.322543 -0.87792218 31.613686
-2.4148881 -4.9529877 32.526817
-1.6958411 -5.011385 32.556065
-31.258377 -2.8703015 32.766506
-30.949633 -2.9619055 32.762863
-31.335823 -2.4877572 32.68631
-31.227402 -2.0655923 32.58807
-31.066833 -2.1136336 32.788376
-31.162159 -1.6920471 32.793774
-31.234779 -1.27175 32.62281
-30.73448 -2.930033 33.052067
-30.759567 -2.5479586 33.031506
-30.731253 -2.1332715 33.080982
-32.935562 -1.7943697 33.077137
-30.748505 -1.7339811 32.954254
-32.986744 -1.3481817 33.106323
-31.173222 -1.2820668 32.915028
-30.786282 -2.5030849 33.500057
-30.779095 -2.0923874 33.517254
-32.956657 -1.7753959 33.31765
-30.820606 -1.7091751 33.338612
-32.924644 -1.3679554 33.439968
-31.181267 -1.2923254 33.218895
-38.629967 -0.37092912 33.97937
-38.373104 0.61539686 33.980495
17.947973 -4.3293977 34.267315
18.199808 -4.3424678 34.310753
-32.375263 -2.9756019 34.133167
-37.75845 -0.81501687 34.028336
-37.7934 -0.3287183 34.076885
-37.693802 0.14150882 34.058334
-37.594887 0.62241161 34.078018
2.2139435 -4.337347 34.551414
-33.839581 -0.89677012 34.494656
-34.058647 -0.452851 34.575932
-33.908474 -0.027676463 34.544014
-34.033566 0.4190557 34.600899
-72.157661 -2.3344948 36.570423
-72.204193 -1.3842263 36.62043
-72.129021 -0.47109795 36.518425
8.3624001 0.47223032 36.514534
-72.166313 -2.3884525 37.166943
-72.073502 -1.3700603 36.929447
-72.186424 -0.50702453 36.885941
-72.210678 -1.4332796 37.216301
-72.242256 -0.54243791 37.258553
-72.013687 2.2011673 38.072563
-3.1137295 -0.71238351 39.031776
-0.84151125 -3.3671558 39.781437
-2.719101 -0.7474736 39.792233
-0.94645321 -3.2820783 40.035271
-0.64789391 -3.2844899 40.175476
-0.26412812 -3.325839 40.251709
-0.22969055 -0.74408799 40.218369
-3.4398892 -3.0249524 41.199654
-4.9536886 -1.0140303 41.135033
-4.7550259 -1.0849166 41.124107
-4.6465139 -0.79618549 40.810463
-3.4025543 -2.673389 41.222984
-3.4359324 -2.2381279 41.232876
-5.3229485 -1.9799387 41.57925
-3.425988 -1.8032117 41.257336
-3.4524705 -1.4561156 41.261059
-4.7177281 -0.94390285 41.26162
-3.499059 -0.96706742 41.321278
-0.69802642 -4.4128714 41.822701
0.69413698 -4.5635123 41.75811
0.95052856 -4.5973487 41.774578
1.2680403 -4.5834126 41.820301
-5.3595877 -3.2160194 41.609104
3.2496042 -2.8697176 42.008904
-0.39988828 -3.5289395 43.15493
-0.83779788 -3.4343514 43.519806
-3.4643438 -2.2692626 43.553841
-3.4543188 -1.8706756 43.58741
-3.4581068 -1.470225 43.591045
-0.39057159 -3.4520903 43.796223
-0.073664427 -1.3293765 45.028515
-0.59513259 -3.6325338 45.394646
-1.3120513 -3.5365257 45.767303
-0.70598555 -3.5353847 45.952011
-0.86304593 -3.75863 48.187233
-1.0139337 -3.6422894 48.900146
-1.6273954 -3.268213 48.916611
-1.3050989 -3.3557379 48.956085
-0.9274931 -3.4204206 48.96233
-0.71249914 -3.4623079 49.067734
-0.23526621 -3.4314761 49.094215
-1.6368458 -2.8829832 48.91433
-0.38306713 -2.8331487 49.076965
-1.74382 -1.7221071 49.026447
-1.7531137 -1.3372694 49.042419
-1.3502554 -1.2997032 49.08667
-0.94617891 -1.3076335 49.055527
-0.73815179 -1.3164355 49.149139
-0.35684872 -1.5854683 49.086468
-1.7489338 -1.0750813 49.067669
-1.3790898 -1.0678847 49.125385
-0.91389704 -1.0604565 49.070816
-0.73197651 -1.053977 49.168427
-0.58781314 -3.6026912 49.220856
-0.63032079 -3.2029212 49.204041
-0.058655739 -2.1897788 49.206745
-0.64236283 -1.2224329 49.270912
-4.7635164 -3.7857418 51.375767
-4.1097031 -3.740207 51.341377
-4.6410084 -3.4512513 51.335068
-4.6191416 -3.0622823 51.35619
-4.6781082 -2.6909962 51.348415
-4.5586348 -1.9815325 51.426865
-4.5701613 -1.5296474 51.452465
-4.1859193 -1.491313 51.444042
-2.2644272 -1.3472152 51.512039
-4.5794663 -1.0860033 51.436707
-4.1891761 -1.0833921 51.453526
-3.8694985 -1.0766597 51.492832
-3.4838679 -1.0712464 51.462029
-2.6523979 -1.0605235 51.441788
-2.2539382 -1.0531811 51.509892
-2.1806931 -3.7033482 51.681648
-0.64169097 -3.7390649 51.856422
-0.65208936 -3.2778406 51.877693
-0.66396022 -2.9955425 51.900589
-0.67462325 -2.5416484 51.927956
-0.68344569 -2.0910795 51.930557
-0.69084668 -1.8082423 51.949883
-0.69838834 -1.3556834 51.963623
2.4703968 -1.4154886 51.924583
2.6314065 -3.6786542 52.113205
2.6175678 -3.2082839 52.07795
2.6068242 -2.9232771 52.094543
2.5973661 -2.4658999 52.122368
2.5856068 -2.0116305 52.112389
2.5798581 -1.7269282 52.140671
