# .PCD v0.7 - Point Cloud Data file format
VERSION 0.7
FIELDS x y z intensity
SIZE 4 4 4 4
TYPE F F F F
COUNT 1 1 1 1
WIDTH 1219
HEIGHT 1
VIEWPOINT 0 0 0 1 0 0 0
POINTS 1219
DATA ascii
4.5917645 -1.385115 42.234589 39.812492
5.0323501 -1.4051297 42.211449 38.162628
5.331255 -1.4284594 42.224998 38.805634
10.792706 -1.4351869 42.398865 54
10.91238 -1.5376252 42.389809 59.559998
14.661725 -1.4026167 42.265984 37.776424
14.862771 -1.3580011 42.310741 33.927589
17.384768 -1.3524115 42.217472 34.206665
18.268074 -1.3487327 42.201672 33.478714
18.589918 -1.3912158 42.057278 33.053028
19.063046 -1.4289222 42.026718 32.951832
19.282276 -1.3912153 42.01902 31.875
20.572491 -1.410977 42.021461 30.866667
33.410812 -1.4426091 42.096771 29.5
36.844673 -1.5833578 42.285736 31.017
-25.916397 -1.0359046 42.10006 31
-7.3344989 -1.0083717 42.267189 32.023251
-6.9924083 -1.0542269 42.355152 32
-4.0351725 -1.0275434 42.263752 32.366669
-3.8893237 -1.0218792 42.286419 32.531712
2.7226715 -1.0876666 42.161095 49.549831
2.9363563 -1.1993511 42.163631 55.791668
4.6198573 -1.1415012 42.219997 35.670498
11.085421 -1.1832719 42.386017 42.183601
11.230137 -0.94482857 42.376865 29.75
14.675442 -0.98045141 42.338863 30.916317
14.896161 -0.97863758 42.312099 30.135323
17.391069 -1.0668631 42.282761 29.983948
18.272549 -0.95981598 42.178879 29.724083
18.542788 -0.92716748 42.064873 30.49394
19.017065 -0.988065 42.054108 29.047617
19.321857 -0.99820745 42.019447 29.733332
20.150726 -0.96950662 42.054218 28.5
25.048946 -1.1174829 42.049301 30.016001
33.446796 -0.94498014 42.025452 28
-25.915928 -0.68109745 42.105652 30
-10.621132 -0.4818092 42.028748 30.0725
-6.949635 -0.65613282 42.364017 29.700001
-4.0495405 -0.6482082 42.264225 30.735182
-3.8827012 -0.61643445 42.310493 29.139439
11.23079 -0.61969936 42.390251 12.625
14.674269 -0.57938534 42.341206 23.992245
14.887843 -0.59474778 42.323738 26.271185
18.274687 -0.55622792 42.191868 25.393425
18.548578 -0.54301453 42.072159 28.284616
19.044796 -0.59287524 42.043922 26.959597
19.327394 -0.59045857 42.017395 26.854166
20.164955 -0.61998481 42.065868 25
33.528053 -0.43072328 42.045128 30
-25.935547 -0.35511777 42.11031 29
-7.2455292 -0.055930793 42.205269 25.054001
-7.0559273 -0.10331937 42.237553 25.5
-4.030417 -0.24530494 42.28101 29.089333
-3.8851578 -0.20276397 42.313763 25.251396
14.684736 -0.21211663 42.348076 20.747086
14.898738 -0.19640046 42.331692 22.388514
18.276987 -0.15929824 42.192917 21.836018
18.59605 -0.16993754 42.071873 26.115559
19.076519 -0.20876859 42.040833 24.072725
19.351126 -0.22593872 42.02853 25.165846
19.797609 -0.1769295 42.002911 22.714287
20.233921 -0.27373123 42.048416 21.6
-25.934696 0.16563553 42.117058 27.5
-7.213676 0.071516849 42.197399 23.700668
-7.1877446 0.038950741 42.167381 22.7565
-3.9025915 0.097931758 42.227695 23.506763
14.708168 0.19786459 42.358932 19.306307
14.893138 0.18300056 42.346649 19.451691
18.282486 0.23831967 42.206078 17.780899
18.629549 0.22434378 42.063324 23.84347
19.029985 0.12720463 42.055355 20.9
19.328928 0.12454065 42.044415 21.842262
19.670849 0.17510381 42.010822 19.25
20.153816 0.26834583 42.021049 27.067499
20.46674 0.083000124 42.058746 24.5
-25.909088 0.67600012 42.135582 26
-7.2689314 0.77368927 42.177162 25.071251
-6.8962727 0.57394195 42.294525 23.091999
-6.4858985 0.53842407 42.204464 17.359249
-6.2489157 0.53596431 42.216797 17.425598
-5.825635 0.55433357 42.200378 17.025135
-5.3815093 0.53512955 42.260849 16.129194
-5.0091858 0.52831197 42.226807 15.859654
-4.6160288 0.53991568 42.186073 15.115947
-4.213613 0.56607789 42.190964 16.804239
-3.8262129 0.64627481 42.262321 15.528186
10.991068 0.78768951 42.28474 17.001499
11.335586 0.7809816 42.251751 12.501
11.729114 0.78438342 42.177792 14.4005
12.20216 0.77396685 42.174217 14.125375
12.633069 0.76309741 42.250469 12.472333
12.992091 0.75373334 42.214401 14.029796
13.346179 0.7521317 42.163017 12.233333
13.791758 0.75674289 42.24437 14.50275
14.155469 0.7397936 42.171982 11.593
14.697773 0.60018361 42.339191 19.664259
14.898558 0.57662171 42.306152 17.276737
15.338111 0.71763688 42.161438 10.371314
15.78776 0.72865415 42.225719 7.788167
16.229221 0.71331704 42.225212 9.4789753
16.613522 0.72948486 42.13269 5.3047614
17.053772 0.71318656 42.215752 5.916667
17.384449 0.71699595 42.158131 6.1924238
17.826727 0.72047162 42.189186 7.5625005
18.253105 0.60647035 42.199448 14.060274
18.556086 0.6114381 42.08007 21.004822
19.057245 0.57946521 42.046684 19.950001
19.353323 0.58312571 42.057198 21.203299
19.783695 0.65336424 42.019955 16.916666
20.144772 0.52611297 42.002441 26.067499
20.47821 0.60924315 42.041569 22.25
-22.095425 1.0785689 42.2258 24.5
-4.0362492 0.82091218 42.041859 23.092501
-3.8228691 0.9126913 42.259857 18.153198
10.726524 1.0534931 42.21043 18.673203
11.002923 0.90252662 42.20779 16.83169
11.402955 0.86334902 42.1572 14.504577
11.776987 0.89016253 42.16423 14.179487
12.2249 0.87064922 42.200054 13.235847
12.657618 0.88079709 42.237644 13.895834
12.974073 0.88181603 42.163414 13.499998
13.380413 0.85938835 42.245934 12.066422
13.869244 0.89431912 42.12709 16.013832
14.200391 0.86961812 42.21175 13.8885
14.620807 0.8673985 42.249218 20.144558
15.494162 0.88259888 42.115368 12.4443
16.279455 0.93009645 42.088833 22.069168
16.537277 0.88519126 42.161518 17.259602
17.080025 0.94259846 42.368008 21.571999
18.263781 0.90206826 42.181377 22.904833
18.42992 0.88424778 42.040905 24.034
18.808168 0.93751854 42.019993 24
20.549656 1.144603 42.058826 20
-22.068502 1.400317 42.284576 24
-21.990105 1.3501003 42.080559 23
-5.6319132 1.5022622 42.230854 20.444445
-5.5236635 1.5032938 42.346474 17.615749
10.701295 1.4204323 42.18618 16.978369
-22.040125 1.8030683 42.271774 22.333334
-21.976522 1.7898518 42.088882 21.5
-5.6266985 1.8100601 42.233067 14.933334
-5.464242 1.8381312 42.340977 9.4067183
10.692973 1.814567 42.195915 14.463434
33.401337 1.8073043 42.02623 19.017
-5.6122036 2.0864351 42.18544 18.17959
-5.3679409 2.0951796 42.214134 12.493744
-4.988903 2.143044 42.205055 10.726243
-4.6022744 2.2105167 42.172405 10.395397
-4.172091 2.2699578 42.224895 9.0078325
-3.8122754 2.3439066 42.182945 8.0092583
-3.5275874 2.3784056 42.006538 9
10.695247 2.062403 42.176098 5.9750004
-4.1948471 2.4344323 42.28191 15.937562
-3.6855681 2.6129038 42.205879 12.287884
-3.4790239 2.6760314 42.187485 7.5574164
35.173176 2.6967382 42.247986 17.008499
-3.6573386 2.8622272 42.219601 12
-3.1893883 2.8707738 42.324738 17.0935
35.17028 3.0925388 42.285069 16
-5.423708 3.5438738 42.245499 11.898666
13.46116 3.3677642 42.377312 19.5
14.765132 3.5757794 42.386002 5.3333335
-5.6056995 3.8960059 42.117744 8.8000002
-5.548595 3.8353825 42.208916 10.835714
14.786425 3.628489 42.314987 12
14.997392 3.7738414 42.359825 17.0595
-5.6106582 4.2251425 42.371315 8
-5.5595164 4.2070208 42.163151 8.386364
14.72295 4.2104855 42.37862 5.5
-5.5606933 4.6510234 42.214397 6.0352383
-4.5427308 4.757513 42.221992 2.5
-4.0895605 4.7311258 42.178905 5.5
-3.7855823 4.727448 42.259563 2
-3.3964071 4.7279058 42.137863 8.166667
-2.9732106 4.7219033 42.061844 9.1999998
-2.6260135 4.7173824 42.154636 8.25
-2.253264 4.7267227 42.183716 9.1999998
-1.7971537 4.7300825 42.178616 8.2857141
-1.3634552 4.7194767 42.193546 7
-0.95420265 4.7360582 42.215263 6.4285712
-0.54520923 4.7236199 42.228142 7.7777777
-0.12808448 4.715127 42.122086 9
0.16623662 4.7241049 42.21344 8.25
0.63273549 4.7380209 42.228149 9.3999996
0.93864721 4.7292395 42.231655 7.875
1.4675256 4.7299638 42.235359 7.625
1.7439071 4.7493105 42.249619 7.3333335
2.1503348 4.7276177 42.1926 6.5
2.5394731 4.7263031 42.150143 7.7142859
3.0771701 4.7289081 42.183567 7.5
3.3389957 4.7281704 42.168003 10
3.7468276 4.7281675 42.087631 6.8000002
4.3141146 4.7250662 42.047058 4
4.6366162 4.7311406 42.398312 5
4.9655142 4.7279224 42.220684 5
5.4319253 4.7385468 42.189556 3
10.733032 4.7841501 42.136021 0
11.012383 4.7816048 42.22863 7.25
11.396273 4.7746239 42.076622 3.8
11.834567 4.772274 42.205105 6
12.195648 4.7755508 42.176445 5.75
12.552613 4.7764769 42.156662 8
12.918824 4.774992 42.173969 4.5
13.398552 4.7702589 42.258854 6
13.744193 4.754488 42.157562 5.75
14.144343 4.7703657 42.209267 4.8000002
-5.7909656 4.9947319 42.152294 7
-5.4501877 4.9577599 42.247555 4.1875
-5.0842094 4.9465671 42.298767 3
-4.5851593 4.905982 42.316742 3
-4.1813622 4.9239125 42.179188 2.875
-3.8800571 4.9132051 42.250858 5.3333335
-3.4745717 4.8887796 42.222004 6
-3.0709984 4.8760829 42.236099 2.6666667
-2.6899683 4.8654895 42.196747 4.3333335
-2.1451573 4.8622007 42.20919 3.4000001
-1.8877071 4.8525329 42.241825 3.6666667
-1.4600719 4.8298144 42.138577 4
-0.93797469 4.834713 42.116673 4.25
-0.42366123 4.8183069 42.110115 9
-0.2002492 4.8217192 42.083595 1
0.1675787 4.8200922 42.291252 2
0.85846806 4.8118868 42.112019 1
1.2665052 4.8003387 42.234352 1.5
10.756423 4.9623132 42.254925 7.395833
13.142126 4.826807 42.152946 15
14.654561 4.8135071 42.173546 9
-21.998936 5.5209908 42.394871 9
-5.2026424 5.3042812 42.045837 1
-4.3090353 5.4382482 42.365192 0
10.718971 5.4189749 42.26709 4
10.702426 5.814033 42.236538 3.4285715
5.5782204 6.0570326 42.323593 5
13.680534 8.7688074 42.026436 1
10.770654 8.8084936 42.155052 3
4.8399863 -8.2089481 42.651672 59.053001
-3.7587492 -5.0767159 42.694511 59.009998
7.5150704 -4.7098298 42.736794 45.056
13.508994 -4.1367702 42.75317 53.069
-4.0397234 -3.2937031 42.47533 41.0975
-3.8242359 -3.351032 42.658058 52.053253
10.626261 -3.3047659 42.665253 52.283752
11.12823 -3.3890455 42.563686 52
-3.8530374 -2.9282322 42.444122 43.004997
8.3134928 -2.8628845 42.661667 55.094002
9.0247965 -2.8761804 42.696003 47.354832
9.3093033 -2.8751912 42.758205 51.066502
9.8072796 -2.9675145 42.73407 50.566002
10.222679 -3.0075066 42.665226 50.222225
10.531597 -3.0361111 42.636066 49.838303
11.127379 -3.0211477 42.583042 49
11.557158 -3.0905161 42.547821 37.085499
14.2455 -2.8901553 42.697018 41.5065
-24.679981 -2.6778383 42.432053 36.028252
-9.6856794 -2.4257684 42.755142 41.025501
-7.3204899 -2.7988496 42.563354 40.073502
-5.5196233 -2.4030213 42.508015 44.036499
-4.5722466 -2.4055233 42.676514 48.524628
-3.9384551 -2.4578443 42.483269 39.666668
-2.372649 -2.4088099 42.455235 43.044498
-1.3752942 -2.4045928 42.643063 43.046001
-0.50203705 -2.4111733 42.738609 52.50325
-0.3511548 -2.409615 42.774017 63.014252
1.7319677 -2.4150538 42.440144 63.048
5.5154114 -2.4060106 42.561653 50.081001
5.8882627 -2.431632 42.615219 51.081749
6.1515541 -2.4123664 42.562138 54.290913
6.6134143 -2.4220037 42.714924 49.4828
7.0698376 -2.4235349 42.626228 52.133339
7.4422631 -2.4539366 42.617378 54.261494
7.8036413 -2.4352219 42.6101 55.580616
8.2334051 -2.4899652 42.676971 55.238899
8.5810337 -2.5216148 42.601543 54.674805
8.9771776 -2.5112381 42.672039 51.878208
9.3310089 -2.5568254 42.628174 53.695011
9.8236504 -2.5228076 42.650803 45.942345
10.19328 -2.6410828 42.641918 45.3125
10.47873 -2.5921955 42.59898 43.269501
11.090416 -2.4872644 42.562267 38.333332
11.397469 -2.4591472 42.603344 49.512764
11.860276 -2.4634013 42.537075 55.713528
12.200973 -2.4648275 42.54454 58.079487
12.615055 -2.4704187 42.600025 56.655575
13.111208 -2.4724879 42.592964 55.742271
13.475394 -2.4879191 42.586609 52.883144
13.880068 -2.4756746 42.614586 55.152538
14.204086 -2.5739532 42.603355 44.091118
18.195475 -2.4981933 42.623989 47.524437
-9.7601194 -2.3406637 42.597858 41.025501
-9.3309526 -2.3089271 42.42363 41.026001
-8.5438242 -2.3612804 42.604118 42.026402
-8.2486076 -2.349052 42.408348 41.019501
-7.2472625 -2.1131027 42.5756 37.87582
-7.085813 -2.2646596 42.559425 42.209507
-6.6901021 -2.3768904 42.621407 43.84259
-6.1322751 -2.375603 42.675388 44.724949
-5.7149758 -2.3733153 42.581711 45.691959
-5.3671584 -2.3824029 42.568916 46.150814
-5.0105219 -2.3771362 42.629734 46.79427
-4.5812316 -2.3692048 42.564182 46.296898
-4.2952795 -2.3303485 42.546459 44.172722
-3.831562 -2.2110302 42.532978 43.483238
-3.4094207 -2.3494959 42.58749 46.811058
-3.0135977 -2.3612101 42.586418 49.085789
-2.5975618 -2.370364 42.626202 51.67416
-2.1987741 -2.3609817 42.591797 50.629814
-1.8180833 -2.3737335 42.587288 52.916798
-1.4169096 -2.3668642 42.591496 52.076977
-1.0197356 -2.3556089 42.603397 48.826714
-0.6364857 -2.3538663 42.586006 48.800873
-0.20113035 -2.3593419 42.580986 49.767254
0.20447843 -2.3409054 42.520058 46.764118
0.57327926 -2.347775 42.574799 49.244236
1.0504613 -2.3480041 42.545444 46.195618
1.3952659 -2.3365829 42.585526 46.142483
1.7936357 -2.3512762 42.574837 47.83313
2.1821344 -2.3362563 42.582802 46.405815
2.5347927 -2.3440182 42.576874 46.490562
2.9748371 -2.3300498 42.590729 46.923592
3.4093804 -2.3392501 42.596878 48.638039
3.7612793 -2.3495378 42.527515 47.451633
4.1775217 -2.3497622 42.624138 49.807922
4.5660048 -2.3559821 42.557079 48.609886
5.0309973 -2.3593826 42.627148 53.318546
5.4467053 -2.3621676 42.571308 53.482727
5.8508449 -2.3721695 42.574043 52.979156
6.2020702 -2.3822129 42.634682 55.941833
6.6550636 -2.384419 42.60696 55.144394
7.0346222 -2.3830554 42.578259 56.210049
7.3847384 -2.3552587 42.660427 55.558704
7.8196816 -2.3017893 42.682644 52.836452
8.2142982 -2.2298603 42.693268 51.37056
8.5925169 -2.288686 42.700737 50.582886
8.9811268 -2.2125463 42.73595 46.530544
9.3764677 -2.2154698 42.70306 45.366154
9.7774849 -2.2400408 42.686954 39.471077
10.196016 -2.2141309 42.665649 38.606121
10.597664 -2.2407796 42.622379 38.690727
11.040789 -2.1912174 42.594318 37.744331
11.315524 -2.1749203 42.611492 41.689724
14.21181 -2.178164 42.590214 47.014381
17.331266 -2.2849519 42.603535 48.904465
18.276783 -2.1910203 42.601444 41.149868
-25.441967 -1.7093391 42.659813 33.025002
-7.2488475 -1.7736869 42.617138 36.070175
-7.141717 -1.8672105 42.593571 38.73737
-4.0293827 -1.8195684 42.520203 37.349224
-3.8783753 -1.7696605 42.435379 38.585785
4.4830637 -1.712337 42.4058 61.077499
6.8464656 -1.8920238 42.76302 47.577
7.2874022 -1.9534483 42.724903 50.077499
7.8854523 -1.8457057 42.691925 49.520893
8.2550125 -1.8467678 42.68634 50.110458
8.5960836 -1.8196353 42.734741 45.79438
8.9938917 -1.818537 42.715805 45.94857
9.3904142 -1.7690939 42.660469 48.01836
9.7933855 -1.7565643 42.654922 48.278034
10.18526 -1.7385761 42.642994 42.654533
10.604193 -1.7524996 42.626114 41.434147
11.004719 -1.7538383 42.614811 37.143311
11.316454 -1.7840912 42.642235 44.0975
14.226542 -1.8711863 42.601318 48.138691
14.641909 -1.7928544 42.5182 49.783562
14.957548 -1.7892011 42.563942 47.139927
15.280314 -1.85692 42.603294 48.024498
17.284363 -1.6620988 42.589352 39.197811
17.869694 -1.8120933 42.456036 39.515999
18.272806 -1.7713985 42.607143 37.603523
33.627998 -1.6137626 42.698685 31.5
-17.862354 -1.4737495 42.681522 33.025501
-15.729158 -1.540626 42.647617 34.032001
-7.2405992 -1.3949606 42.619995 34.240108
-7.1532102 -1.3566477 42.59293 34.614223
-4.0183687 -1.4180279 42.518913 34.891266
-3.8661773 -1.3648658 42.516579 35.644444
4.7625246 -1.4616323 42.414505 44.625008
4.9756546 -1.5096502 42.418228 36.797501
5.2264504 -1.4782047 42.469429 40.285713
6.8676701 -1.4951664 42.770641 41.077
7.3984537 -1.5224469 42.76284 42.576752
7.8085785 -1.4225214 42.689625 40.715599
8.2163916 -1.4449655 42.702332 41.425667
8.6021166 -1.4049947 42.74543 39.400524
9.0218744 -1.4187422 42.730824 39.237518
9.4012966 -1.4066342 42.703526 38.834801
9.7713699 -1.3853319 42.672371 39.584526
10.19306 -1.3934796 42.643963 39.719994
10.610175 -1.3938323 42.60331 43.560368
11.00981 -1.35563 42.600464 38.787518
11.318682 -1.3908036 42.640659 42.16692
14.664469 -1.4008424 42.452148 39.285622
14.85041 -1.3951793 42.458981 39.940311
17.302919 -1.4262623 42.491753 35.413193
18.284069 -1.3568263 42.60191 33.274277
33.6008 -1.4928894 42.728764 30.018
-7.2334485 -0.98081326 42.593769 31.845833
-7.1512961 -1.0118042 42.606529 32.01339
-4.0481305 -0.98222804 42.501904 32.152279
-3.8807099 -1.0125359 42.48069 32.60067
6.9405079 -0.99729341 42.759663 32.827
7.4664893 -0.9925378 42.755665 32.826752
7.8368649 -0.98723215 42.746178 31.832949
8.1955881 -0.95546669 42.708649 31.834696
8.5821648 -0.96632534 42.718288 31.905991
8.9957533 -0.98158461 42.728619 32.463291
9.3727369 -0.99259514 42.6908 32.518059
9.7677069 -0.9718166 42.689732 32.499508
10.199046 -0.98970616 42.672287 32.970486
10.605227 -0.98938859 42.627575 33.051647
10.987634 -0.95217431 42.617332 31.32349
11.315657 -0.9931559 42.635708 33.401081
14.685653 -1.0143343 42.444061 30.908068
14.855026 -0.98926097 42.459797 31.463493
18.289984 -0.96490175 42.583725 29.916782
33.613037 -1.0325418 42.713062 30.53525
-7.236176 -0.60492235 42.616886 30.15575
-7.1471415 -0.68037677 42.617828 29.256819
-4.0294714 -0.53179795 42.49506 29.537035
-3.8701472 -0.59528506 42.459953 28.843126
6.5479884 -0.69118333 42.764492 28.076504
7.0841637 -0.6713413 42.733845 27.219927
7.4676895 -0.60994923 42.79081 29
7.8151488 -0.63486958 42.764137 25.683599
8.1634026 -0.62068909 42.709286 25.291588
8.5853586 -0.59820181 42.747421 26.476006
8.9637566 -0.58107591 42.719292 26.374884
9.3857832 -0.58985811 42.691505 25.025185
9.7829323 -0.57782793 42.689526 24.751604
10.19937 -0.57777345 42.649685 23.276291
10.596259 -0.5756377 42.6371 22.973307
10.990588 -0.55131173 42.615738 23.02766
11.322595 -0.60579884 42.651497 24.224932
14.677545 -0.61222798 42.437435 23.542145
14.848571 -0.5635345 42.450623 22.378796
18.293938 -0.57021308 42.581448 26.544901
-7.2279286 -0.23652044 42.612614 28.208979
-7.1526256 -0.19566193 42.62711 25.684204
-4.0206027 -0.1645394 42.495335 27.333334
-3.8778663 -0.18706781 42.476471 25.536413
6.5885267 -0.15114921 42.771473 19.5765
7.0455127 -0.16657075 42.750935 18.676998
7.504797 -0.14076859 42.758179 21.692499
7.8168635 -0.19682999 42.756268 19.390444
8.2033176 -0.20702553 42.745289 20.21072
8.6105118 -0.20238054 42.756683 22.204374
9.0245428 -0.20593198 42.720119 22.540293
9.382659 -0.19182514 42.703167 21.217951
9.8060064 -0.18462124 42.688847 18.703932
10.188255 -0.20642331 42.668724 20.746256
10.600619 -0.16812304 42.666405 22.820995
11.01015 -0.16778956 42.64584 25.443577
11.316293 -0.21943456 42.651028 22.412806
14.674473 -0.20721333 42.435459 15.97978
14.877049 -0.33057088 42.436897 18.677799
18.294203 -0.17372158 42.573032 22.978012
18.402946 -0.25242627 42.533115 23
-7.2277422 0.11755854 42.595356 27.007408
-7.133811 0.16468464 42.63092 23.497692
-3.87029 0.1063223 42.576572 23.731295
6.5989318 0.074520648 42.776543 16.0765
7.4806476 0.03747946 42.792259 17
7.9546747 0.22727451 42.787739 13.25
8.2076521 0.15343484 42.738857 14
8.6078978 0.21625137 42.748726 15.535397
9.0121374 0.21661392 42.740719 18.217236
9.3745947 0.19454177 42.727085 19.335714
9.8061295 0.23668133 42.7341 19.007511
10.21586 0.21203513 42.704044 19.966438
10.603843 0.20458516 42.676895 21.932089
10.999307 0.19208427 42.66515 23.038788
11.317101 0.2030061 42.655243 21.21632
14.686315 0.2041347 42.423622 15.786329
14.890224 0.18434075 42.408104 15.3
18.298872 0.25593624 42.589592 18.840521
18.409723 0.1386193 42.642906 20
-7.2459803 0.7626856 42.677353 25.072001
-7.0797005 0.57250464 42.665436 23.114813
-6.2525544 0.53164738 42.607605 17.359749
-5.7204237 0.53387642 42.627773 18.034327
-5.4041085 0.52945477 42.618198 16.398094
-4.9756923 0.5348137 42.616287 15.630666
-4.6067638 0.5286625 42.593071 16.429825
-4.1466684 0.554434 42.585674 17.423439
-3.8285081 0.63821507 42.542191 16.388659
7.8902326 0.56613719 42.78368 10.955882
8.2775211 0.57794225 42.786732 21.099901
8.5998564 0.57173914 42.776432 15.366214
9.0184813 0.6135599 42.750832 16.639875
9.3695784 0.59248704 42.740814 17.85367
9.7946758 0.61440587 42.754662 19.657209
10.215307 0.61858165 42.725014 20.628092
10.611328 0.59372646 42.686886 20.970453
10.998597 0.6293574 42.670673 21.366184
11.315252 0.60572314 42.648193 20.147713
11.792301 0.76882762 42.599483 15
12.207378 0.76030982 42.541824 16.04298
12.621548 0.75900674 42.602833 13.814875
13.029208 0.75274968 42.632233 10.688562
13.418107 0.74981141 42.596214 11.990151
13.822007 0.7290979 42.621731 12.486167
14.246926 0.73817503 42.572681 11.325687
14.676559 0.58728611 42.445869 14.615398
14.939193 0.55240196 42.441372 14.138888
15.513614 0.71742809 42.506752 8.333334
15.802256 0.71542507 42.630993 10.144143
16.225912 0.70761395 42.622463 4.5833335
16.646502 0.72176802 42.547771 7.132381
16.987576 0.70888609 42.583828 5.3084998
17.414557 0.69766527 42.584915 7.1372728
17.780071 0.69477767 42.559532 10.2625
18.259392 0.61782944 42.578064 15.61973
18.410685 0.53055644 42.633907 17
-22.027851 1.0422156 42.633255 24.75
-7.1929951 0.83985579 42.444904 24.072001
-3.8144088 0.89327252 42.543522 19.375462
7.9827175 0.84190142 42.781296 7
8.0958347 1.0575336 42.777214 2.7272727
8.6604271 0.97149915 42.769962 12.329497
9.0248585 1.0054399 42.764938 18.335533
9.37008 0.97502196 42.745468 18.790598
9.8045769 0.99249572 42.759052 18.966667
10.200336 0.98268569 42.738853 19.253859
10.652263 1.0240488 42.655174 19.847742
11.019365 0.91421586 42.618294 18.879568
11.377077 0.86283976 42.564842 16.410446
11.842916 0.88926822 42.557911 14.914407
12.259358 0.88381636 42.59539 15.230768
12.592108 0.85656852 42.557415 11.604166
13.044746 0.88946235 42.524513 17.596283
13.358519 0.89835137 42.632481 16.761906
13.829947 0.86102468 42.608803 12.312817
14.201934 0.86801153 42.528137 15.687962
14.615016 0.88004643 42.591423 20.086576
14.855386 0.85186672 42.739044 21.0695
15.391715 0.90713978 42.444138 21.07
15.916662 0.93742287 42.585461 23.564751
16.124846 0.90591574 42.48098 21.570251
17.913448 0.93139648 42.554684 23.06875
18.24402 0.9067229 42.521881 23.111111
-21.962778 1.3555776 42.660477 23.666668
-5.6562061 1.5250236 42.53912 17.717949
-5.4916797 1.5129448 42.463264 14.089286
8.6772661 1.2235068 42.785858 10.5
9.1083059 1.2594812 42.768486 22.4
9.3976612 1.3354099 42.779488 21.004761
9.804327 1.4196327 42.764427 16.765715
10.18755 1.4113677 42.742039 18.137915
10.667269 1.412596 42.641308 17.295053
10.906778 1.3967665 42.743156 16.25
-21.940872 1.8213474 42.630383 21.857143
-5.6594706 1.7997415 42.551098 14.302083
-5.4832954 1.8248314 42.497807 8.9056396
-5.1923437 1.9971703 42.652802 7
9.4765024 1.8334732 42.784172 19.02
9.8339186 1.8040621 42.77187 14.429684
10.19541 1.8044995 42.750301 17.458889
10.671063 1.8038298 42.635475 14.407547
10.947314 1.81501 42.739002 13.833333
-5.6016378 2.016892 42.523613 14
-5.4178581 2.08934 42.59483 15.386593
-5.0123286 2.1142182 42.609058 10.919077
-4.6109028 2.198638 42.590897 10.49989
-4.1994519 2.2606065 42.637966 8.9120903
-3.8588791 2.3119521 42.590496 8.9172354
9.5960598 2.2167685 42.794357 15.5
9.8357725 2.1793664 42.776871 13.483334
10.18563 2.1968026 42.747169 15.311111
10.637854 2.1482093 42.669861 12.485556
10.979951 2.294446 42.696613 14.178787
11.27091 2.3277221 42.6464 13.94525
33.40184 2.259635 42.505226 18.016001
-4.0633149 2.4253204 42.522213 16.395166
-3.7266662 2.5675042 42.576027 12.729729
-3.4475248 2.6747589 42.608391 9.0626822
9.5863829 2.6373672 42.766289 11.5
9.8082762 2.5753806 42.782616 14.285714
10.211863 2.5982337 42.755707 14.403061
10.612244 2.5859861 42.719051 15.037037
10.991831 2.6226172 42.696121 13.174002
11.295501 2.5843234 42.643692 14.045455
35.231705 2.7826369 42.674149 17
-3.6528864 2.810267 42.69664 11
-3.4047921 2.8539004 42.625088 14.6574
9.5960894 2.9935145 42.774559 9.5
9.9456177 3.0252926 42.776867 12.944444
10.21424 3.0340602 42.760471 12.638888
10.611821 2.9990656 42.722694 14.733334
11.01099 3.0145879 42.690628 12.66
11.296835 2.9743052 42.644997 12.712501
12.118351 2.983561 42.613941 18.530251
12.440917 3.1445153 42.619022 17.059999
-5.4035091 3.5432427 42.591984 11.277779
-5.1817303 3.4547276 42.474171 16.092501
9.7901506 3.4240968 42.760765 7.25
10.195614 3.4269609 42.771824 11.47436
10.629112 3.4118876 42.732368 12.456862
11.010929 3.4241793 42.699009 11.618056
11.290983 3.4010148 42.664913 13.325
11.799559 3.4486995 42.628738 19
12.049726 3.4577951 42.573181 19
12.747846 3.4917254 42.473358 19
13.082287 3.3840864 42.458389 19.4
13.443732 3.3032665 42.481922 19.059999
14.734179 3.5217164 42.481655 9.5
-5.4763217 3.8204937 42.523746 9.2367344
9.8614683 3.8236949 42.775177 5.8333335
10.231047 3.8342364 42.7756 10.011364
10.587264 3.8267806 42.741425 11.863636
11.00911 3.8159561 42.691795 9.9277945
11.293313 3.81547 42.676407 10.705882
12.753945 3.8563266 42.500938 18
13.136671 3.8733745 42.414253 18
14.691801 3.8076775 42.443607 7.9658952
14.850612 3.6164007 42.415924 8
-5.609715 4.0682392 42.60482 3.5
-5.4693255 4.212698 42.523327 8.2023811
9.7788315 4.2361865 42.795918 4.2999997
10.206981 4.2391353 42.775326 7.25
10.590827 4.2038469 42.749073 10.958333
11.022454 4.2007084 42.701672 8.5537872
11.283113 4.2121625 42.688236 9.4736843
13.461576 4.3178802 42.528625 16.059999
14.706871 4.1120648 42.47427 7.7777772
-5.4513087 4.591692 42.534771 6.7708335
-4.6840706 4.7110977 42.630577 3.5
-4.2118526 4.7258248 42.61496 5.5999999
-3.7221968 4.7288432 42.63448 5.3333335
-3.3283224 4.7266526 42.601379 4.25
-2.8970709 4.7163754 42.614628 4
-2.5289166 4.7117114 42.660889 3.6666667
-2.3046684 4.7262669 42.547836 5
-1.8400917 4.70719 42.599064 5
-1.4602776 4.73104 42.669598 3
-1.0018595 4.6976542 42.658882 5
-0.48984599 4.7445612 42.566391 1
-0.12323713 4.7438293 42.610256 2.6666667
0.23433487 4.7668796 42.577145 6
0.69062561 4.7499332 42.637123 6.6666665
0.93785638 4.7267852 42.665073 3
1.4017172 4.722806 42.654716 7.1999998
1.8285079 4.6989403 42.615116 5
2.127892 4.6956577 42.59668 3
2.5837023 4.6965804 42.572254 5
3.1243038 4.6991882 42.585979 7
3.2580178 4.7250471 42.771931 5.6666665
3.7258053 4.7161217 42.637508 5.5
4.1866274 4.728394 42.544178 5.5714288
4.5250773 4.7182279 42.61615 6.5
5.0147429 4.732358 42.598671 5.4000001
5.4944601 4.7128873 42.491985 10
9.8660803 4.6021848 42.782959 1.5999999
10.27771 4.5627985 42.770439 3.6458333
10.592264 4.6335249 42.741512 7.8769226
11.003651 4.6296558 42.678303 6.4172044
11.329737 4.6000981 42.673134 8.833333
11.711003 4.7670922 42.553402 3.25
12.153737 4.7770076 42.468494 10.333333
12.59281 4.7648382 42.5681 5.5
13.04775 4.7659559 42.773392 5.5
13.301436 4.7692504 42.548515 3.5
13.760538 4.7768579 42.575859 5.75
14.076158 4.7366023 42.531754 5
14.734602 4.5663681 42.660984 11.5
14.881499 4.42417 42.467766 12
-5.4209948 4.941339 42.562576 5
-5.08003 5.0032606 42.619812 4.8000002
-4.5440907 4.892364 42.640888 1.6666666
-4.1167512 4.9131746 42.557285 5.2857141
-3.8168941 4.9006515 42.625031 2.7777777
-3.3882942 4.8859153 42.685066 5.8000002
-3.0342546 4.8625937 42.564518 5
-2.6233196 4.8496537 42.606129 3.125
-2.2287331 4.8358359 42.523739 8
-1.8624355 4.848505 42.598797 6.3333335
-1.4531848 4.8433523 42.608501 4.4000001
-1.0663683 4.8191099 42.620529 6.75
-0.57917404 4.8291106 42.52737 1.5
-0.30920219 4.8124089 42.420555 10
0.57747269 4.8129935 42.581215 2
5.524538 4.9627113 42.486786 8.666667
10.154196 5.0139928 42.789886 2.2777779
10.64873 4.9496865 42.687836 6.4734569
11.289987 4.8217955 42.708565 9
14.705896 4.8048844 42.420929 3
5.5554953 5.4406052 42.426979 7
9.9715014 5.2798185 42.785938 0
10.248943 5.4209843 42.788837 1.375
10.633128 5.3381338 42.691975 5.2142859
-21.932611 5.6256723 42.662811 8.666667
-5.301671 5.6143913 42.43364 1
5.541842 5.8362546 42.464016 6
5.6107359 5.7625694 42.77211 6.5
10.634784 5.7407446 42.680717 5.8235292
10.640042 6.145628 42.737164 6
10.633582 6.5608554 42.77507 5.5
10.974924 6.5642347 42.74976 3.5476189
11.20046 6.6639671 42.738907 10
10.644737 6.9081545 42.772247 5.5
10.928114 6.9445748 42.759567 3.75
11.301979 6.9907384 42.763641 6.7777781
10.653464 7.3134155 42.7855 4.75
10.939783 7.3470521 42.755177 2.75
11.287848 7.3945856 42.717838 4.9000001
10.560375 7.625453 42.773888 7
10.95979 7.7333074 42.7635 2.6666667
11.300117 7.7384491 42.730087 6.3333335
10.573751 8.142889 42.793091 5.5
10.917084 8.1659832 42.731411 5.5
11.295778 8.1392431 42.730019 5.25
10.575233 8.6716661 42.782612 4
10.918809 8.6964951 42.721848 4
11.235109 8.4305639 42.763577 4
11.601802 8.7855482 42.780716 3
12.651785 8.830719 42.711063 2
4.5271153 -5.2371535 42.910583 49.053001
5.1713786 -5.2561417 42.858852 49.053501
4.6886477 -4.8675513 42.982994 45.055
4.8942833 -4.8187523 42.890903 55.555
4.6866212 -4.5981178 43.050739 45.035999
5.0170317 -4.4943266 43.00441 44
4.6825557 -4.1698341 43.092438 46.054501
4.907342 -4.2108798 43.034256 43.777126
5.2762957 -4.0628824 43.03553 47.055
5.8409882 -4.3252416 42.887985 51.056999
6.8176579 -4.1286378 42.917164 43.0555
13.429202 -4.1507955 43.125134 53.068501
13.893 -4.1805129 43.156425 52.067001
14.077107 -4.1402984 42.927734 52.069
14.628014 -4.1337891 43.104496 51.069
3.9883556 -3.8523557 43.095409 39.09
4.6433363 -3.7242579 43.081226 45.436497
4.9764552 -3.9175155 43.043633 43.721703
4.5937514 -3.3858328 43.101673 42.616287
4.6180496 -2.9993317 43.103127 42.333355
8.1709347 -2.8522296 42.860153 40.528748
8.9130354 -2.8921607 42.836586 52.066002
-9.8114033 -2.4145823 43.091827 41.0275
-9.4797611 -2.4194021 42.983742 41.026749
-8.6263809 -2.4027987 42.942738 42.026001
-7.0199714 -2.4493492 43.044796 44.024002
-5.3464003 -2.4000325 42.897976 47.026749
-4.8149767 -2.4020388 43.06884 44.037998
-3.6917334 -2.4189656 42.941769 51.683414
-3.5562525 -2.4827182 43.089512 43
-2.4985707 -2.4040706 43.069241 57
-2.0405338 -2.4000292 43.178558 59.912334
-1.7153288 -2.4020767 43.098724 61.252354
-1.2833827 -2.40516 42.880302 61.61895
-1.1013957 -2.4089706 43.011559 62.493042
-0.42019856 -2.4022706 43.159714 47.045502
0.60135245 -2.4079094 43.008091 41.050999
1.2647487 -2.4021935 43.139046 58
1.7354937 -2.4054329 43.045002 58.698669
2.4626684 -2.4040258 42.978779 58.666668
3.1286445 -2.4037006 43.127563 57.052502
3.5260589 -2.4033997 43.063248 56.702499
4.6065645 -2.5283396 43.06464 45.20483
4.8894825 -2.5348649 43.011787 56.543999
5.4878607 -2.4203508 42.839363 49.581501
5.7877097 -2.4163251 42.902718 50
6.1768112 -2.4131196 42.897995 50.194168
6.6866817 -2.423965 42.883301 51
7.0123205 -2.4409022 42.857994 51
7.5020461 -2.4225249 42.832638 57.875
7.7681122 -2.4433 42.844982 49.602184
8.2086544 -2.5617023 42.83382 44.477966
8.5596867 -2.5265827 42.832649 38.666664
11.827042 -2.4648099 42.956417 55.341629
12.217038 -2.4687753 42.958714 56.606445
12.617816 -2.4714141 42.971931 56.229218
12.964149 -2.4696338 43.050404 54.658489
13.324332 -2.4739413 42.97406 53.871605
13.825128 -2.4839756 43.035191 52.147934
14.228378 -2.592665 42.976204 42.284256
17.753557 -2.4720366 43.09824 50.1315
18.252691 -2.4956651 43.048431 47.479637
-10.641275 -2.379678 43.15197 40.0275
-10.021878 -2.3045998 42.989571 40.026501
-9.5694733 -2.3542264 43.188282 41.027
-8.5095835 -2.3427563 42.985268 42.027
-8.370512 -2.3957288 42.987301 42.026749
-7.2213268 -2.1418014 42.819386 37
-7.0564852 -2.334995 43.033146 42.794575
-6.6523576 -2.373692 43.033409 43.237999
-6.161428 -2.3735852 42.998444 44.774998
-5.7082739 -2.3672423 42.994057 45.033901
-5.4201131 -2.3730791 42.967281 46.116322
-5.017169 -2.3823357 43.029202 46.490116
-4.621964 -2.377574 42.988194 48.207363
-4.3222103 -2.380491 43.043804 48.136639
-3.8052449 -2.2793467 43.052109 44.241997
-3.4156203 -2.338074 42.989643 44.529377
-2.9882908 -2.3717558 43.007225 48.696541
-2.6143024 -2.3739944 42.982365 50.326283
-2.2171121 -2.3728023 42.98143 51.649479
-1.8008397 -2.3769133 43.005417 51.65831
-1.4219092 -2.3811224 42.988514 51.671402
-1.0187318 -2.3783906 42.986069 51.175747
-0.58620018 -2.3754287 43.002678 52.105579
-0.17976519 -2.3749263 43.024265 49.846283
0.21769491 -2.3749492 42.994568 50.745972
0.65204144 -2.3438051 43.031876 49.024353
1.0112808 -2.3579957 43.009666 47.566597
1.4240946 -2.3476472 42.981434 47.920105
1.8003887 -2.3509817 43.015831 50.005409
2.2125306 -2.3482084 43.020565 47.663094
2.6083562 -2.3640854 43.014294 49.154488
2.9964273 -2.3598268 43.005062 48.754169
3.4062798 -2.3613386 43.012695 48.548489
3.8104303 -2.355108 42.984989 48.291409
4.204423 -2.36428 43.005959 47.209438
4.6162658 -2.2148182 43.105495 46.468193
4.9885387 -2.2322516 43.046104 53.056664
5.3965368 -2.2001178 43.015484 52.67646
5.7791362 -2.2575028 42.979767 51.111366
6.230617 -2.2637599 42.932934 49.559769
6.6340971 -2.2144442 42.949238 50.133522
6.937407 -2.2356465 42.908642 49.343288
7.3839359 -2.2139468 42.877602 48.013489
7.7910728 -2.2246072 42.85466 44.987865
8.1718607 -2.2074852 42.836193 42.683258
8.5877419 -2.1874001 42.817085 39.489277
8.8375664 -2.3600421 42.823227 38
11.391797 -2.2574167 42.966385 56.974922
14.226601 -2.1799901 42.966431 49.05484
14.4152 -2.2960699 42.938072 36.060001
17.350876 -2.2536623 42.98711 48.572441
17.612165 -2.1401353 43.153839 44.777779
18.307808 -2.2165995 43.002136 41.701717
-25.540045 -1.7056412 43.01762 33.0275
-3.8007267 -1.8097059 43.166466 42.008884
-3.5982366 -1.8416547 43.065708 38.25
2.6893582 -1.7309322 43.119572 38.084
4.6363058 -1.8215019 43.144146 46.222637
4.9787054 -1.8144364 43.08614 48.844193
5.3546619 -1.8692529 43.06012 49.333912
5.8028746 -1.8136516 43.032913 43.122334
6.1866074 -1.7944486 42.993736 42.560284
6.5866394 -1.803123 42.965202 43.506123
6.9610868 -1.8297981 42.924637 43.942894
7.4338655 -1.8274463 42.900917 44.350292
7.8233056 -1.8178182 42.868305 41.656506
8.1902046 -1.7976778 42.836792 40.968483
8.5855675 -1.8109907 42.81921 39.40136
8.8671389 -1.7519116 42.816853 52.75
11.372664 -1.8134243 43.013206 53.590748
14.248307 -1.884958 42.985081 49.389854
14.613013 -1.8501309 43.016045 53.518269
14.992039 -1.8456389 43.026363 50.392082
15.254089 -1.8714768 42.942585 48.829964
17.506313 -1.7908303 43.144421 40.218693
18.309914 -1.7830687 43.020981 37.19017
18.40081 -1.8429435 43.048733 35
-7.2197161 -1.3541985 42.941566 34.52425
-7.1492271 -1.3060141 43.002277 34.287426
-3.8251016 -1.3093216 42.984577 35.611382
-3.5977569 -1.3646523 43.108185 34.75
4.6314588 -1.3910834 43.134666 37.828075
4.9876785 -1.3966844 43.095558 38.442947
5.3625627 -1.3990982 43.0653 39.49369
5.791935 -1.4161954 43.039219 38.48209
6.1778607 -1.434283 42.994335 38.751415
6.6191206 -1.4155669 42.97501 38.162922
6.9861407 -1.4110055 42.941341 38.319588
7.3948903 -1.3976461 42.914783 37.411938
7.8157949 -1.3860362 42.880569 37.156326
8.2017441 -1.3896896 42.843742 37.340229
8.579011 -1.3923937 42.829052 36.551216
8.8891668 -1.3650187 42.812054 38.333332
9.4351406 -1.5396296 42.817268 38.066502
11.367461 -1.3991729 42.998631 49.277527
14.708981 -1.3242784 42.911079 34.077248
17.199465 -1.2891709 43.187969 33.666668
17.409788 -1.3969473 43.105442 34.68483
18.315336 -1.3580756 43.019375 33.292515
18.419598 -1.413017 43.077511 32.5
33.417416 -1.4435729 42.971024 30.015499
-7.2288566 -1.0181482 42.964378 32.375584
-7.1323147 -1.0336298 42.924789 31.706665
-3.8489997 -1.0666749 43.039177 32.738911
-3.5594251 -1.0250348 43.062134 32.25
4.1962676 -1.0274484 43.189159 31.211666
4.6272726 -1.0171827 43.141216 32.969776
4.9781723 -1.0249553 43.106262 32.899963
5.3840795 -1.0263978 43.078144 33.502213
5.7961025 -1.0182323 43.044491 33.312466
6.1948042 -1.0042021 43.00116 32.747715
6.5948973 -0.99426401 42.952755 32.587753
7.011385 -1.0375313 42.921043 33.142662
7.3827205 -1.0090528 42.903355 32.758545
7.7956266 -1.0315096 42.868511 32.891254
8.1883202 -1.0127317 42.841614 33.067795
8.5545044 -1.038083 42.833298 33.332813
8.9526882 -1.140264 42.804253 33
11.374002 -1.0268836 43.010693 34.14748
14.767004 -1.0380949 42.888 31.230686
17.653608 -1.1678489 43.116753 31.008499
18.305487 -0.97614652 42.997036 29.904703
18.42103 -0.98668367 43.079281 29.833334
33.703907 -0.81333137 42.894577 31.07
-10.389363 -0.74405897 42.96207 30.026501
-6.9806385 -0.56758094 42.983688 28.0275
-3.8855095 -0.65274817 42.957138 30.168917
-3.5910306 -0.58451378 43.100739 29
4.2739363 -0.55874419 43.095833 30
4.6353683 -0.61335796 43.147545 28.406309
4.9791064 -0.62444282 43.114296 28.220421
5.414093 -0.60910869 43.079754 27.930662
5.8057489 -0.59487307 43.049351 27.991983
6.1902084 -0.61943531 43.014957 28.007477
6.5721207 -0.60188252 42.944199 27.704313
7.0060701 -0.62095064 42.902042 27.830118
7.3947315 -0.61896014 42.875107 27.498726
7.7870607 -0.59638041 42.847977 27.88372
8.1711655 -0.60084814 42.827045 28.518141
8.5178747 -0.64302438 42.814034 28.575001
8.9356737 -0.43431592 42.812675 27
9.6427965 -0.62516195 42.801781 28
11.378922 -0.62619662 43.019775 17.805418
18.324493 -0.57920301 43.009911 26.560667
18.416613 -0.55928069 43.015884 28.619049
-26.136452 -0.37802014 42.921196 31.079
-22.672489 -0.33707422 43.039337 31.071501
-7.2578306 -0.390818 42.801376 30.071501
-7.1127963 -0.097366594 43.008549 24.358404
-3.8211462 -0.064936556 43.014919 21.073931
-3.5963407 -0.18096507 43.11842 26
4.6382794 -0.19550458 43.152679 24.152815
5.0042405 -0.23585156 43.120018 23.619091
5.3895288 -0.22052339 43.088234 23.692829
5.7900095 -0.22226505 43.056995 23.356735
6.2106991 -0.20846736 43.021347 22.694649
6.5823383 -0.21897186 42.94397 23.767233
7.0073318 -0.20811774 42.899834 24.219635
7.3812895 -0.22842771 42.882957 23.500608
7.7996154 -0.20670302 42.846062 24.154116
8.1837215 -0.21048944 42.832817 24.815266
8.5391693 -0.22512423 42.821922 23.181908
8.8926249 -0.075344704 42.821697 18.688667
9.5794907 -0.18508238 42.803371 25.571428
9.8223 -0.12176597 42.819473 25
10.059823 -0.09870559 42.801991 24.857143
11.381709 -0.24121726 42.997082 14.285598
18.339428 -0.16467483 43.006878 23.718243
18.420246 -0.14358628 43.0084 25.523809
-10.530297 0.2557283 42.970787 28.072001
-7.1152081 0.12225354 42.999302 24.897015
-3.8187351 0.10705312 43.023487 25.046383
4.6549106 0.17708309 43.155018 20.44828
4.9964056 0.17243484 43.135593 21.01557
5.3886123 0.17637396 43.096626 20.234392
5.8053446 0.17054784 43.068691 18.897823
6.2015362 0.18219006 43.035622 19.735043
6.5876546 0.1847374 42.950886 20.015064
7.0020356 0.173053 42.909019 20.134583
7.4205799 0.18995956 42.88615 18.906094
7.7755985 0.17626221 42.851673 20.035625
8.1727352 0.19321436 42.830246 20.082306
8.5947247 0.17363401 42.826878 20.507381
8.9427481 0.13766488 42.828304 18.152287
9.382638 0.16364135 42.824261 23.683334
9.8086185 0.25348017 42.815414 23
11.389488 0.11442956 43.003754 10.509811
18.329191 0.24893419 43.002445 20.556482
18.419359 0.17333695 43.046024 21.9375
-7.2219648 0.75744116 42.8312 25.071501
-6.5529547 0.52756983 42.992912 18.278126
-6.1880026 0.51980758 42.965462 17.327053
-5.7971501 0.5148043 43.041836 16.82585
-5.4022775 0.5371002 42.958492 16.645844
-5.0202355 0.51706761 43.033142 17.356834
-4.580018 0.5225876 42.991333 15.135157
-4.1623158 0.52501154 42.944977 14.676666
-3.8186097 0.603962 42.995281 17.643213
4.6555486 0.58695382 43.160629 19.068539
4.9868231 0.56669021 43.143761 19.301836
5.4028549 0.59596598 43.107174 16.522697
5.8056178 0.57989788 43.075436 16.399872
6.2120914 0.58415377 43.041519 15.995273
6.6162581 0.58265615 42.956203 16.659662
6.9992647 0.58399498 42.917988 17.275879
7.3879089 0.58641523 42.895863 16.194
7.7746053 0.57783836 42.863712 14.950299
8.1914921 0.61249781 42.832401 16.059923
8.607934 0.60358018 42.841049 17.584686
9.0102282 0.65832788 42.825729 20.853666
9.3855362 0.6252526 42.825031 21.073334
9.6223259 0.64974505 42.825008 21
10.004653 0.66599286 42.828728 20.5
11.425574 0.60011744 42.96228 9.0705147
11.89187 0.76604927 42.958981 17.003939
12.301249 0.76049161 42.951004 13.611667
12.675315 0.73576182 43.004669 9.5
13.069363 0.74635297 42.995701 12.278056
13.46531 0.73848951 43.020741 11.591182
13.825238 0.72925979 42.997211 9.6944437
14.195385 0.73309863 42.960449 11.625688
14.656774 0.71748936 43.001686 12.702001
14.840158 0.65465617 42.951851 14.586708
15.419976 0.72033262 42.966141 12.0055
15.774475 0.71640372 42.868282 14.002125
16.171583 0.69168675 43.020855 12.26319
16.586525 0.71073562 42.924793 7.0625005
17.044893 0.70631957 43.035725 3.9313471
17.439501 0.71199584 42.986469 6.2520123
17.748865 0.69964808 43.018688 6.771708
18.301857 0.60005939 43.015244 16.744997
18.407133 0.57148182 43.026932 19.299999
-21.951931 1.0436749 43.019882 24.25
-3.7876618 0.89726412 43.000904 18.074047
4.6587849 1.006339 43.168121 17.547163
4.9892664 0.98038489 43.150719 16.883167
5.398623 1.0015893 43.118412 15.30694
5.8108959 1.0004185 43.082809 13.768049
6.2104497 0.96873254 43.047108 13.278975
6.610796 0.98442692 42.969204 13.432354
7.0131803 1.0127869 42.926586 13.130085
7.4031987 0.97989613 42.900986 14.048056
7.8041196 0.98603523 42.872761 13.882911
8.2295399 0.99288684 42.837296 17.332724
8.597456 0.9770515 42.823128 18.495237
9.0237274 1.0253646 42.835964 19.924999
9.4312963 1.0462612 42.83028 20.333334
9.7955818 1.0744808 42.82283 19.5
10.026183 1.0159181 42.828884 18.5
11.104411 0.82535195 42.843063 10.5
11.467046 0.81342065 42.978642 7.25
11.817011 0.84693551 43.011024 13.222917
12.190235 0.86872822 42.937904 14.26575
12.63759 0.86322552 43.04467 13.759286
13.000637 0.88089788 42.918499 15.896166
13.41466 0.86193132 43 11.078867
13.823952 0.85985625 43.0103 15.148438
14.237378 0.88027751 43.025066 17.08993
14.618619 0.87656289 42.994595 20.01893
14.868589 0.8852632 43.042408 21.568501
15.883446 0.87958777 42.930122 22.068001
16.215729 0.88998121 42.892456 21.737167
16.932383 0.93383247 42.818275 21.571499
17.80057 0.93322927 43.182087 22.071501
18.222546 0.90774775 42.90633 22.813099
-22.063217 1.3908381 43.001106 26.5
-21.892847 1.3717705 43.020649 23.5
-5.6102962 1.5048548 42.994343 19.888887
-5.5678473 1.5660555 42.968254 20.5
4.6847181 1.389779 43.171539 14.245491
4.998764 1.3760365 43.154327 14.800837
5.3949928 1.4125806 43.127533 12.160409
5.7926154 1.4027612 43.090694 9.8762388
6.205451 1.3781368 43.052082 10.774451
6.6125541 1.3892146 43.019386 11.348769
7.0084381 1.3726337 42.972427 12.936441
7.4233046 1.3683506 42.949017 14.597954
7.7658496 1.3622561 42.930912 15.321793
8.1950674 1.3646412 42.889729 15.434289
8.6108465 1.4060756 42.864433 18.032322
8.9966593 1.4178931 42.843063 19.633598
9.3700733 1.4356841 42.829681 17.507256
9.7604618 1.4471345 42.836437 17.25
10.099066 1.4580989 42.821156 16.25
-22.038265 1.7978947 43.063778 25
-21.897709 1.7962373 43.030518 22.333334
-5.4593258 1.8862444 42.977921 11.177777
-5.1016088 1.9927484 42.970127 2.5
4.6866479 1.8010637 43.170979 11.982243
5.0076838 1.7715092 43.167336 12.487317
5.4119048 1.7892466 43.128265 12.459312
5.7955856 1.8139461 43.097149 10.257508
6.2055497 1.8177726 43.061573 9.6941223
6.6335979 1.8006083 43.035152 12.321455
7.029614 1.7695731 42.995922 14.759986
7.4191976 1.7901912 42.977425 15.929999
7.818881 1.7628373 42.964157 14.5544
8.1907845 1.792479 42.914364 15.865518
8.6162968 1.8149952 42.882828 14.509735
9.0286646 1.8111374 42.844975 16.58777
9.3951159 1.8072734 42.824341 15.734127
9.7832947 1.8247122 42.850189 15.733335
10.171917 1.9234658 42.825886 13.5
10.417294 1.8830112 42.807274 13.5
-22.023188 2.2144251 43.09248 24
-21.963345 2.1913357 42.92823 25
-5.8944778 2.1263723 42.928299 19.0965
-5.3928404 2.0835135 42.990658 11.167652
-4.9944892 2.1060593 42.995354 10.454001
-4.6159902 2.1808963 42.98991 10.536108
-4.2133217 2.2465987 43.001518 10.311437
-3.8136628 2.3151708 43.025536 7.0689912
4.689146 2.1937203 43.179012 11.648648
5.0203938 2.1863303 43.170166 12.8068
5.4226627 2.1945946 43.139038 12.504127
5.8298502 2.2258353 43.107185 11.086587
6.238379 2.2142859 43.073898 10.661508
6.622879 2.1867592 43.039612 12.202133
7.0166016 2.1963725 43.008297 13.792777
7.4037681 2.173368 42.978947 13.31398
7.8085961 2.161521 42.972832 14.072223
8.2232914 2.1834939 42.924007 16.617159
8.5928516 2.1982696 42.891666 12.668612
8.9655962 2.2047584 42.868317 15.95098
9.3717184 2.1991141 42.829987 13.959649
9.7208004 2.2388966 42.816628 13.926666
10.144099 2.1902826 42.838436 12.023808
10.407753 2.2763078 42.818367 11.25
-4.1762333 2.4110708 42.892128 16.0667
-3.6945024 2.5564489 43.010983 13.185701
-3.4951782 2.6649864 43.009705 10.478227
4.6810007 2.5768569 43.183792 9.643939
4.9926658 2.5857213 43.173473 11.856322
5.4256191 2.5912807 43.145504 10.443022
5.8309689 2.6561406 43.113205 9.2366838
6.2323837 2.6145389 43.076611 8.8990078
6.633327 2.5899465 43.049618 10.626984
7.028863 2.6106212 43.01469 12.849205
7.4165912 2.5547426 42.991844 13.655025
7.7998657 2.5626769 42.979347 14.320346
8.1756268 2.5651269 42.925957 15.42
8.6188517 2.6118646 42.891853 13.4875
8.9782228 2.6090357 42.882221 14.222222
9.3897047 2.5975456 42.836018 14.155952
9.7675381 2.6832922 42.817455 14.760823
10.147314 2.6464591 42.834229 10
10.501603 2.5813365 42.809116 10.333333
10.899479 2.7445836 42.854523 0
35.24485 2.7859948 42.909264 17
-3.6212063 2.8309147 42.822327 13
-3.4007807 2.8288193 42.883194 14.54625
4.6868458 2.9540863 43.181683 10.269231
5.0212159 2.9633312 43.179226 10.887577
5.4011245 3.002722 43.161285 9.6706076
5.8188677 3.0817513 43.127731 8.833333
6.1994748 3.0458703 43.094868 9.0491076
6.6124444 3.0177264 43.060326 11.710713
7.0285172 2.9755006 43.025383 14.958898
7.4058671 2.9948528 43.008125 13.615217
7.7750216 2.9886706 42.985687 14.174509
8.18995 2.9991486 42.936527 14.654167
8.5787439 2.9886606 42.90522 12.292857
8.9831085 3.0052423 42.87738 13.802084
9.3794518 3.0016222 42.84782 12.685965
9.7466927 3.0204229 42.822018 12.000529
10.213772 3.0909963 42.83667 7.5714288
10.557873 3.0951693 42.804207 7.5
-5.3524809 3.5118818 43.06073 11.365499
4.6440744 3.3947291 43.172005 12.875
5.0356951 3.3487232 43.169392 12.18
5.3814106 3.4413273 43.172367 9.9638891
5.8109756 3.4393814 43.146896 7.9300003
6.1997714 3.4462979 43.098972 9.5934067
6.6611614 3.3884134 43.057125 12.139584
6.9992971 3.368927 43.038044 14.684211
7.3737817 3.3705885 43.017143 11.996296
7.7803392 3.3703322 42.983932 13.355556
8.2163076 3.3811941 42.93845 13.909091
8.6062708 3.3747582 42.913826 13.515152
8.9739914 3.3947423 42.892006 12.155128
9.3734131 3.3958495 42.862526 11.293333
9.735322 3.4182036 42.821339 11.16627
10.158583 3.4813666 42.855019 5.4285712
10.533941 3.4607353 42.824364 5.5
-5.5161204 3.8064048 42.987659 9.0402775
4.6417637 3.7678258 43.178543 8.416667
5.0224156 3.7558033 43.173023 13.416667
5.3851256 3.8327236 43.175575 9.1339283
5.8075566 3.8437645 43.144199 7.6199999
6.2002058 3.8179426 43.103958 9.6374998
6.6064277 3.7826791 43.068039 11.404445
7.0019855 3.7620585 43.040276 12.589584
7.3833566 3.7375047 43.012974 13.45
7.8074632 3.7407579 42.980289 13
8.1937227 3.7989016 42.947605 12.55
8.6040869 3.7705712 42.918171 12.378788
8.9776697 3.7987392 42.888065 11.314285
9.4064779 3.8064468 42.857475 10.892858
9.794549 3.8171904 42.831013 10.348484
10.158213 3.7457254 42.825691 9.5
10.576436 3.822341 42.816875 3.5
-5.5077248 4.1714387 42.993671 7.5999999
4.6935253 4.1900716 43.199417 12.5
4.9887424 4.1892796 43.188442 14.187499
5.3528614 4.2115707 43.18428 9.757575
5.7652998 4.217649 43.155617 7.9099998
6.1449604 4.2013521 43.113647 7.7291665
6.6006088 4.1742454 43.0914 12.208333
7.0337286 4.0756779 43.036106 13.794872
7.4047894 4.119071 43.020977 12.611111
7.8092451 4.1405916 42.988464 12.425
8.1960707 4.1618242 42.952057 11.981481
8.5818596 4.1887622 42.928223 10.215278
8.9602671 4.2344871 42.898567 9.5211124
9.4124184 4.1985612 42.858627 9.8846149
9.7950983 4.2171097 42.832111 9.0291662
10.126739 4.222158 42.839558 6.0833335
10.586318 4.1832108 42.815193 1.5
-5.5099697 4.6259041 43.04277 5.5958333
-4.921916 4.7296515 42.968666 1
-4.4692335 4.7216134 43.021622 3.3333333
-4.2131853 4.7047801 42.955959 8
-3.817621 4.7103868 43.01096 6.5
-3.3733284 4.7131004 43.049911 7.3333335
-3.0466683 4.7132096 43.020821 6.25
-2.6000214 4.7082334 43.014027 8.1999998
-2.1213882 4.7203255 42.953281 7
-1.8098933 4.7113833 42.990059 6.5
-1.4058248 4.7028689 43.025917 7
-1.0907775 4.7121515 43.014626 4.5
-0.60265613 4.7255387 42.993439 4.8888888
-0.174219 4.7365127 43.008492 5.1428571
0.23245035 4.7266202 43.031212 5.3636365
0.6306622 4.7367024 43.006363 7.5555553
0.9884845 4.7317729 43.030582 5.25
1.3964829 4.7289062 43.054287 7.125
1.8238659 4.706676 43.002319 6.5999999
2.1847231 4.7196226 43.019249 7.2857141
2.6624155 4.7058167 42.970184 8.5
3.0681586 4.7183561 42.98008 7
3.291306 4.7026567 43.066628 7.8000002
3.8171844 4.7149053 43.014263 7.4000001
4.1565022 4.7080255 43.065765 7
