# .PCD v0.7 - Point Cloud Data file format
VERSION 0.7
FIELDS x y z
SIZE 4 4 4
TYPE F F F
COUNT 1 1 1
WIDTH 1496
HEIGHT 1
VIEWPOINT 0 0 0 1 0 0 0
POINTS 1496
DATA ascii
3.2062681 -2.8685255 70.560287
-21.483089 -2.7105961 70.577538
2.9560022 -2.7683465 70.57547
3.1413839 -2.6664579 70.541412
3.2648003 -2.6839261 70.485703
-21.49346 -2.4193428 70.454765
-8.7696552 -2.4369276 70.589272
2.8965523 -2.479084 70.587578
3.1785679 -2.5862241 70.532043
3.2577777 -2.5835676 70.482597
-8.8202753 -2.3165059 70.535919
-8.7896051 -2.3250809 70.573105
2.867548 -2.2799072 70.595482
3.1001205 -2.2589183 70.553688
-21.528721 -2.1655266 70.468346
-8.8220291 -2.0407126 70.549271
3.1581547 -1.8011148 70.510635
3.2413716 -1.9017568 70.54583
-8.8382835 -1.707498 70.525352
-8.7807531 -1.6974524 70.538422
-9.0703411 -1.5059135 70.573952
-21.630577 -1.3868607 70.407852
-8.83428 -1.1454773 70.591644
3.0413492 -1.1122246 70.590881
-21.535933 -0.91155577 70.457115
-8.8673706 -0.91405207 70.518753
-8.5432806 -0.94842792 70.42025
3.513998 -0.8847838 70.546829
3.717999 -0.82523704 70.558884
-8.815217 -0.65803111 70.490532
-8.5710764 -0.67766684 70.468552
2.4316428 -0.60020137 70.570877
3.5394254 -0.71640617 70.562599
3.6394029 -0.6366623 70.575615
-21.607883 -0.49056244 70.426437
-21.52121 -0.53629017 70.4814
-8.8399496 -0.54594493 70.528297
-8.7882023 -0.44358861 70.537636
3.4338796 -0.43446177 70.521446
3.6774533 -0.53690058 70.549614
-21.522787 -0.28408653 70.491028
-8.8446999 -0.2876687 70.547897
-8.722188 -0.20594102 70.546913
3.0856283 -0.28027225 70.548126
3.3241341 -0.23811844 70.536316
3.4901142 -0.28140849 70.554192
3.6701939 -0.26249987 70.551331
3.9259279 -0.36565673 70.518593
-21.535809 -0.039659977 70.454765
-8.8567553 -0.12350059 70.461884
-8.7855396 -0.16492462 70.480156
2.9145813 -0.1124146 70.547882
3.2934964 -0.10517193 70.511528
-8.864049 0.16154711 70.437836
-8.7714262 0.1687497 70.507248
-8.2679596 0.19322646 70.459938
0.61508405 0.17732072 70.467667
2.015461 0.15446031 70.599823
2.3411927 0.1288203 70.591919
2.7568879 0.080762506 70.598419
3.3100164 0.095671587 70.505074
-8.8228903 0.28904691 70.439919
-8.7568188 0.2483497 70.463425
-8.3963108 0.33164716 70.468658
-8.1702747 0.20390862 70.487488
-7.8139195 0.21535683 70.432831
-0.88780802 0.21119606 70.506844
-0.76574874 0.22467619 70.531189
-8.9137516 -3.0379009 70.658806
0.74418014 -3.059536 70.737122
1.0588188 -3.0562425 70.713409
1.4928151 -3.0423422 70.647507
1.8963027 -3.0673151 70.632019
2.06215 -3.0313761 70.639977
2.2621417 -3.0602164 70.611427
-8.9045811 -2.8669715 70.688217
-8.7457247 -2.9136765 70.695869
-1.5425307 -2.9320254 70.610115
0.59785426 -2.910085 70.755219
0.72584742 -2.8813288 70.732162
0.90919673 -2.8873663 70.703354
1.1392261 -2.8707225 70.690559
1.2923818 -2.8889711 70.672554
1.5237502 -2.9009631 70.685936
1.7057673 -2.9215326 70.689507
1.8756658 -2.9306083 70.657547
2.0752347 -2.8855121 70.640564
2.3472517 -2.8640656 70.613022
2.5055995 -2.8827598 70.666779
2.6488073 -2.8474894 70.633842
2.9181371 -2.8900776 70.625687
-21.646698 -2.7352464 70.717766
-8.8537397 -2.6724694 70.681152
-8.7803631 -2.7254286 70.683296
0.50639176 -2.6302338 70.78093
0.73833728 -2.712703 70.767166
0.88106096 -2.6925519 70.735611
1.0599492 -2.6698337 70.726425
1.3459307 -2.6902688 70.704407
1.7482082 -2.6995378 70.686256
1.9862303 -2.6529791 70.65004
2.0724723 -2.6768091 70.665916
2.4324152 -2.7212954 70.628029
2.9581304 -2.6998708 70.629997
3.0792427 -2.7564001 70.613792
-21.650654 -2.4895401 70.726158
-8.8244295 -2.4826424 70.671928
0.47095779 -2.4039669 70.787949
0.72914249 -2.4980073 70.759262
0.89654475 -2.464648 70.731865
1.0812426 -2.4924424 70.734352
1.3160764 -2.4611259 70.711906
1.4623038 -2.5456891 70.730812
1.7408271 -2.5289946 70.675156
1.9616238 -2.4238853 70.655701
2.0549562 -2.4790077 70.628983
2.5028865 -2.5229244 70.626007
-21.661732 -2.2704813 70.729797
-8.8349075 -2.3099732 70.699379
-8.7646208 -2.2742648 70.713341
0.54421377 -2.2721868 70.794144
0.73001766 -2.2990654 70.765312
0.88026196 -2.2712066 70.73674
1.087049 -2.3690267 70.73233
1.2799778 -2.2364011 70.725266
1.543051 -2.3458347 70.726837
1.696054 -2.2862871 70.693222
1.9313523 -2.2372522 70.630997
2.1325538 -2.2879434 70.641113
2.3423851 -2.316123 70.650223
2.6191595 -2.3761191 70.630623
-21.639772 -2.0272989 70.729889
-8.8269367 -2.098803 70.632996
-8.7576265 -2.1161807 70.728584
0.50647306 -2.0308368 70.787941
0.73097318 -2.1014347 70.756798
0.89761239 -2.0904129 70.752731
1.0717182 -2.0720096 70.736427
1.2126412 -2.0558081 70.731133
1.5863993 -2.1445916 70.734863
1.6489542 -2.0937448 70.70649
1.9178102 -2.0596483 70.67054
2.1116352 -2.0950418 70.66037
2.3174667 -2.0231531 70.648071
2.685153 -2.1005795 70.625801
-21.646652 -1.8084316 70.732185
-21.484367 -1.8872125 70.606133
-8.8144865 -1.9308648 70.707443
-8.7727299 -1.9225653 70.649002
0.49674061 -1.8070065 70.792618
0.72772026 -1.9009469 70.766441
0.90447116 -1.9324989 70.754936
1.0714743 -1.9461603 70.722343
1.6130321 -1.920867 70.720428
1.8960619 -1.875748 70.675919
2.0829134 -1.8969673 70.646088
2.3200946 -1.8082918 70.665047
2.7257118 -1.8732328 70.618752
3.3213356 -1.8684176 70.619476
-21.480598 -1.6363353 70.747429
-8.8213091 -1.673896 70.663353
-8.7765369 -1.6814321 70.661667
0.53585505 -1.7915719 70.799698
0.71715903 -1.7013743 70.761772
0.87003225 -1.6941141 70.75872
1.0021822 -1.7898365 70.764153
1.4607239 -1.6761166 70.733818
1.6071059 -1.7406714 70.730057
1.9231217 -1.7018094 70.685333
2.0362957 -1.654058 70.672272
2.6677988 -1.7451495 70.636093
3.6367242 -1.6614234 70.601837
-21.662777 -1.5701902 70.744362
-8.8259115 -1.4978741 70.674767
-8.7621908 -1.5267308 70.682838
0.72064316 -1.4965374 70.781418
0.90395486 -1.483598 70.741127
1.0798428 -1.4970057 70.761681
1.3816419 -1.4155457 70.736794
1.56673 -1.4974575 70.74086
1.7867033 -1.435617 70.707542
1.9074775 -1.5071173 70.692863
2.0634742 -1.4109231 70.68689
2.3624425 -1.5147141 70.67627
2.5973563 -1.4823012 70.634964
2.6728051 -1.580224 70.651657
-9.0470142 -1.2968719 70.693275
-8.8288193 -1.2887491 70.662605
-8.751976 -1.3024464 70.68689
-8.5216293 -1.2410105 70.638504
0.73737639 -1.2861358 70.782509
0.90738279 -1.2874814 70.760727
1.0294926 -1.2831156 70.779953
1.2367561 -1.2240595 70.744751
1.4831642 -1.2602863 70.747078
1.6807921 -1.3357612 70.720863
1.8963231 -1.2812103 70.687515
2.0822608 -1.2631896 70.660667
2.3422174 -1.206126 70.693451
2.4429083 -1.2831376 70.657684
2.6919944 -1.3587321 70.643448
-21.550905 -1.1819189 70.787773
-9.0272217 -1.1864585 70.685181
-8.8970547 -1.1495211 70.685913
0.75201952 -1.0931962 70.769287
0.89827687 -1.0919846 70.762131
1.0852935 -1.0904461 70.775978
1.2737532 -1.1060829 70.750313
1.4172146 -1.1263824 70.731148
1.7171719 -1.01662 70.748009
1.942889 -1.0105784 70.69339
2.107394 -1.1797583 70.670387
2.2875283 -1.0571495 70.675407
2.5497255 -1.1506629 70.656281
2.7007036 -1.0075455 70.633591
-8.8363533 -0.90397918 70.650078
-8.7758923 -0.8747943 70.753387
0.73433131 -0.90554065 70.768646
0.88193387 -0.89453763 70.767876
1.0593761 -0.89756757 70.750504
1.483905 -0.88781625 70.751099
1.6424271 -0.81730068 70.762093
2.1143997 -0.90278965 70.666969
2.288558 -0.92135215 70.682106
2.4049253 -0.99535823 70.683952
2.7479057 -0.83930337 70.612854
2.9335003 -0.89487982 70.619141
0.71837842 -0.67402864 70.75222
0.88926953 -0.69647855 70.779686
1.0800494 -0.70695555 70.765915
1.6952896 -0.6821484 70.743851
2.0473497 -0.69819605 70.70105
2.2776771 -0.72672266 70.692352
2.6214173 -0.74588406 70.662514
3.2125204 -0.71810281 70.632225
0.7394917 -0.49351019 70.765747
0.88806075 -0.490224 70.770393
1.0747733 -0.49008653 70.786018
1.2198634 -0.4072094 70.770142
1.467092 -0.54070586 70.732162
2.0243404 -0.46565476 70.72715
2.3282039 -0.44821197 70.638054
2.4411311 -0.51762617 70.703003
3.4259794 -0.49460918 70.663818
0.73945081 -0.31508261 70.752808
0.90611279 -0.30884993 70.769035
1.074261 -0.32434312 70.743965
1.4285179 -0.38755322 70.793701
1.9191622 -0.25271502 70.690674
2.1791542 -0.38530517 70.714706
2.7333555 -0.22900963 70.660866
3.2707641 -0.22292125 70.608025
3.4252603 -0.33517289 70.67067
-21.486492 -0.042608142 70.745552
0.75803882 -0.10181499 70.761932
0.840213 -0.085315786 70.768257
1.0541817 -0.088690303 70.757355
1.7092235 -0.18088329 70.768478
1.8717735 -0.059773564 70.709694
2.1644328 -0.0028767586 70.700546
2.473376 -0.13453615 70.733421
2.67062 -0.063767314 70.692474
3.1006937 -0.14129826 70.64547
3.2062445 -0.040332556 70.63192
-21.381359 0.17119682 70.696724
-8.8531809 0.082605124 70.737129
-8.7763357 0.14642572 70.719582
-4.5061846 0.15938997 70.729645
-3.9281869 0.16279042 70.721497
-2.0692296 0.19172764 70.61792
0.11923485 0.17445493 70.663139
0.56373477 0.17734575 70.631836
0.72395378 0.10330552 70.745262
0.84811258 0.092275359 70.784569
1.0913603 0.14791182 70.76545
1.3651739 0.18187018 70.732056
1.4078566 0.15935016 70.753601
1.7344228 0.12023994 70.718605
1.9673792 0.12356138 70.740005
2.1188781 0.098597445 70.700943
2.4760556 0.15688804 70.699844
2.6475208 0.14379279 70.642082
3.1290543 0.096493497 70.638863
-21.438995 0.20693982 70.680473
-8.8210335 0.21113092 70.713303
-8.7574844 0.20510662 70.705856
-1.8651698 0.22874123 70.673553
-0.76339865 0.2693342 70.657455
0.41343045 0.21652901 70.774994
1.0524187 0.21935621 70.697372
1.70994 0.2019434 70.724014
2.1468847 0.21017461 70.694664
2.2568252 0.21249795 70.680954
2.4618652 0.22053528 70.625015
2.6164303 0.2117008 70.685303
2.9453087 0.2069242 70.626343
-8.6730061 -3.0336223 70.883255
0.67850047 -3.0790839 70.914879
-8.8787365 -2.9241686 70.913567
-8.7646151 -2.9308159 70.925957
-0.40317571 -2.8036273 70.992035
0.58419615 -2.931047 70.89624
0.68836254 -2.9371903 70.930763
0.80657887 -2.8946967 70.96019
-8.8511314 -2.6324663 70.938652
-8.770627 -2.7554669 70.808517
0.57651961 -2.6651385 70.826752
0.69762182 -2.6831653 70.859962
0.81528461 -2.714272 70.948128
-8.8800335 -2.5183969 70.876915
-8.7716713 -2.4731927 70.903107
-0.40272689 -2.5231533 70.989899
0.70272738 -2.4602375 70.865753
-8.9226389 -2.334749 70.914612
-0.40369785 -2.3869939 70.986511
0.70658779 -2.2806454 70.832634
0.80880988 -2.3532012 70.946388
-8.9201136 -2.0933263 70.930946
-0.40479326 -2.1776989 70.9786
0.59949374 -2.1615467 70.801979
0.6706633 -2.0785813 70.841637
-8.9236908 -1.8995025 70.912918
-0.39243281 -1.9749869 70.985786
0.69083184 -1.885664 70.861298
-21.410757 -1.7161379 70.97422
-8.9694529 -1.6054789 70.951729
0.55191457 -1.7254896 70.804474
0.72132504 -1.6869777 70.878593
0.80547011 -1.7749813 70.948608
-21.430107 -1.4667351 70.865791
-8.8255672 -1.49412 70.870842
0.52460647 -1.5051172 70.828537
0.715904 -1.4870087 70.86306
-21.647491 -1.3528378 70.863251
-8.9022121 -1.3028752 70.893471
-8.7833424 -1.2548062 70.804977
0.56601775 -1.2524312 70.813797
0.70383012 -1.3272836 70.872131
0.81429279 -1.3767924 70.975204
-9.0688696 -1.0824205 70.84642
-8.8361263 -1.0227408 70.994408
-8.7669258 -1.1143005 70.880394
0.52979428 -1.0666796 70.831192
0.72634327 -1.091405 70.833023
0.86133039 -1.065269 70.816605
-9.0739946 -0.97257811 70.927582
-8.8296976 -0.91895443 70.897041
0.55874485 -0.91753864 70.871078
0.70260304 -0.91763127 70.829781
0.84361845 -0.8687976 70.803154
-8.7975073 -0.63377213 70.961891
0.56133288 -0.66452599 70.846794
0.69478589 -0.69033223 70.848839
0.85543376 -0.70597726 70.809738
-20.493132 -0.52085435 70.907738
-8.8223772 -0.5919317 70.961792
-8.7585735 -0.50622773 70.822441
0.55454427 -0.50130117 70.854225
0.70667481 -0.48439527 70.831627
0.88305485 -0.48657569 70.826187
1.001627 -0.51095605 70.801781
-8.748641 -0.33740634 70.919678
0.53662103 -0.32536703 70.839645
0.71876907 -0.27678737 70.837196
0.87619495 -0.29531786 70.829155
1.0464697 -0.30345106 70.811401
1.5073721 -0.28462481 70.802414
-21.662056 -0.19795728 70.902885
-21.467649 -0.029954433 70.803757
-8.8147593 -0.0012676716 70.890106
-8.7548246 -0.098952852 70.930153
0.52666873 -0.088066161 70.858009
0.7169143 -0.097738817 70.844719
0.89252418 -0.077869788 70.820595
1.1182029 -0.080436788 70.845238
1.3196273 -0.13224772 70.809998
1.4574163 -0.14024717 70.811676
-21.627327 0.026637435 70.888252
-8.8947124 0.12447011 70.916763
-8.7305832 0.13373286 70.927986
-8.0388689 0.17824364 70.916817
-7.9637399 0.1805135 70.858513
-3.6140552 0.15863657 70.93483
-3.3278463 0.19690526 70.868622
-2.6611519 0.1745919 70.961967
-2.0160642 0.19384861 70.829987
-1.8933731 0.16556394 70.92765
-1.6710829 0.19138753 70.805122
-0.7629571 0.16646469 70.845848
-0.25549698 0.17887962 70.804428
0.31218767 0.17162526 70.83757
0.54607069 0.1106417 70.844269
0.70503205 0.063540325 70.840309
0.8880145 0.10067069 70.827652
1.0867548 0.062403321 70.825211
1.2687525 0.081791759 70.814072
1.4664524 0.039711833 70.816818
1.7820946 0.13890123 70.802628
-8.7906113 0.20646167 70.825401
-2.5730214 0.20098293 70.912659
0.74289608 0.27648413 70.806801
-2.8175023 -3.2676833 71.175995
-2.7821565 -3.3288255 71.162788
-1.5081288 -3.3052125 71.012474
0.53597707 -3.2832699 71.123703
-8.7245636 -3.1123307 71.14016
-8.1527987 -3.0090315 71.113029
-1.6020088 -3.0785336 71.117432
-1.5262148 -3.0982509 71.144943
-0.4219358 -3.0967231 71.123199
0.6921196 -3.063076 71.047592
-8.837038 -2.8511 71.037331
-8.7559099 -2.8961797 71.073074
-8.4345522 -2.9546204 71.089928
-7.9569206 -2.9009857 71.17524
-7.5841913 -2.933013 71.130058
-7.0823097 -2.872874 71.179268
-6.7333488 -2.9194267 71.171043
-6.4452901 -2.9564011 71.188042
-6.2971082 -2.9087615 71.107468
-6.0963387 -2.9038613 71.148438
-5.957027 -2.971889 71.186455
-4.1931868 -2.9674253 71.180115
-3.1489978 -2.9443393 71.163559
-2.590992 -2.8080423 71.147026
-2.1515195 -2.9651911 71.190239
-1.8282444 -2.9280133 71.188705
-1.7062976 -2.9432535 71.172035
-1.4868461 -2.8845699 71.16098
-1.3514932 -2.8959553 71.160645
-1.0398583 -2.9739385 71.154472
-0.90703201 -2.9374328 71.054993
-0.797786 -2.9436722 71.078445
-0.45451817 -2.8944933 71.101646
-0.32066551 -2.9033132 71.077843
-0.13838211 -2.9528866 71.071739
0.53498554 -2.898401 71.066338
0.66012549 -2.8720005 71.100807
-6.2490578 -2.7621987 71.145584
-6.1980085 -2.6847606 71.112274
-2.5921507 -2.626657 71.168617
-1.8115709 -2.6866133 71.167236
-1.4935889 -2.7107294 71.161308
-1.3547525 -2.6649451 71.158798
-0.70327902 -2.7055893 71.138367
-0.46905738 -2.7369859 71.10585
-0.35839912 -2.7012091 71.092781
0.54040253 -2.7321749 71.117981
0.66886353 -2.7006207 71.127174
-8.8623905 -2.4612966 71.027084
-6.4592252 -2.4805145 71.07399
-6.1555552 -2.4953206 71.155556
-2.6110101 -2.4990392 71.186455
-2.5649257 -2.4177935 71.158569
-1.8186079 -2.4328213 71.177277
-1.4969881 -2.5173564 71.164085
-1.3907535 -2.4463296 71.192986
-0.69045746 -2.4468911 71.128983
-0.44254532 -2.5052934 71.091476
-0.36679742 -2.4981508 71.108032
0.56203163 -2.5143676 71.091522
0.68043393 -2.5067532 71.114799
-21.502838 -2.3464222 71.106903
-8.751976 -2.3282723 71.019012
-6.4267535 -2.2376442 71.076492
-6.1169186 -2.219631 71.179291
-1.8076805 -2.2309327 71.17923
-1.5016925 -2.2966168 71.160599
-1.3969455 -2.2720208 71.187378
-0.72179806 -2.2902269 71.138199
-0.48421395 -2.3009286 71.100052
-0.37379029 -2.291503 71.088722
0.54217678 -2.2854986 71.072426
0.67429423 -2.3014846 71.144218
-21.475071 -2.1275632 71.023697
-8.7543831 -2.0969198 71.028984
-6.3899903 -2.1055908 71.075569
-6.1166182 -2.0170224 71.186569
-1.8173219 -2.0276694 71.181572
-1.4887167 -2.1254938 71.162453
-0.49836391 -2.073385 71.139748
-0.36231405 -2.0982306 71.117813
0.50050175 -2.0927398 71.10746
0.68062145 -2.0886545 71.128464
-21.461708 -1.8447044 71.108948
-6.2161798 -1.9092219 71.099289
-6.1096153 -1.8117449 71.180969
-2.5743198 -1.9942648 71.1698
-1.8061932 -1.8261166 71.165535
-1.4661154 -1.8885037 71.136635
-1.3591632 -1.8582336 71.167145
-0.7187773 -1.8297942 71.14872
-0.44569424 -1.8806725 71.1147
-0.35987416 -1.8843839 71.108376
0.48716545 -1.8054153 71.012886
0.67937183 -1.8657962 71.091644
0.80404222 -1.8582585 71.101593
-21.482355 -1.643809 71.154236
-6.1642456 -1.7022866 71.147919
-2.5898812 -1.7857404 71.184418
-1.8157736 -1.6236002 71.184067
-1.4760623 -1.6894476 71.151268
-1.3939606 -1.652212 71.171791
-0.68081582 -1.6597323 71.174202
-0.44037846 -1.6716115 71.144417
-0.34919938 -1.6823387 71.111801
0.5143379 -1.7174569 71.102646
0.68761986 -1.7037853 71.112259
-21.468794 -1.4972742 71.147774
-8.7799339 -1.572674 71.156639
-6.432848 -1.5910804 71.094582
-6.2014709 -1.4209156 71.129089
-6.1554384 -1.5175276 71.190628
-2.5843859 -1.5015929 71.188789
-1.8276207 -1.4238766 71.188019
-1.4996766 -1.4744672 71.160858
-0.45485586 -1.4846518 71.127541
-0.34647414 -1.4494667 71.113113
0.50158972 -1.5098618 71.128281
0.69226575 -1.4907304 71.133476
0.80287206 -1.556988 71.026093
-21.43923 -1.303445 71.105721
-6.7158899 -1.3068285 71.111481
-6.2554436 -1.2391787 71.116631
-6.1293697 -1.2419225 71.184593
-1.495693 -1.3305113 71.175499
-0.6808899 -1.3001711 71.179306
-0.45546952 -1.2966303 71.117523
-0.35761723 -1.3050419 71.115082
0.30387205 -1.3193121 71.079559
0.49707952 -1.3238 71.097794
0.68927401 -1.2913568 71.112419
-21.452667 -1.1092601 71.137627
-8.7868271 -1.0474623 71.080544
-7.1046329 -1.0509276 71.119507
-6.9941611 -1.146889 71.123657
-6.3793168 -1.0731419 71.121841
-6.1082487 -1.0397931 71.198456
-2.5752997 -1.0092093 71.184212
-1.4803367 -1.1227213 71.161163
-1.3628833 -1.0746899 71.186569
-0.71879184 -1.0117079 71.167145
-0.42966032 -1.1157821 71.138222
-0.34067369 -1.0829594 71.105972
0.21654761 -1.1203487 71.124771
0.48618793 -1.0096713 71.165092
0.68645573 -1.0996798 71.147514
-21.441025 -0.97004002 71.161232
-8.9895477 -0.86661756 71.198273
-8.7971516 -0.91518462 71.011597
-7.2776299 -0.95316935 71.095184
-6.2301707 -0.99763656 71.117233
-5.9695649 -0.89596212 71.147148
-1.6992973 -0.85734057 71.161835
-1.5288918 -0.91562128 71.146492
-1.3951867 -0.92172933 71.188461
-0.68688995 -0.87259388 71.128693
-0.48839608 -0.83585596 71.139473
-0.36746845 -0.87705499 71.12114
0.53960347 -0.82096851 71.169601
0.67684591 -0.88442129 71.122818
-21.430126 -0.73833895 71.18959
-9.0389881 -0.7555837 71.041374
-8.7446346 -0.70551282 71.116508
-7.8656516 -0.77459067 71.17234
-6.2263331 -0.7019642 71.121063
-2.5742483 -0.79748851 71.198654
-1.7120893 -0.61989915 71.190338
-1.481575 -0.68900359 71.119431
-0.71215445 -0.61985916 71.143372
-0.47591034 -0.67916793 71.131767
-0.36170703 -0.6697222 71.111252
0.53940701 -0.66324013 71.172607
0.69080484 -0.69678915 71.136871
-21.423109 -0.48934221 71.191139
-9.0393496 -0.50660241 71.181885
-8.7722082 -0.48227084 71.140953
-8.362134 -0.58782601 71.183334
-7.8936219 -0.5263297 71.170494
-6.225307 -0.40585095 71.128731
-1.7063291 -0.43156508 71.179962
-1.4584465 -0.49317092 71.140549
-0.70788336 -0.44471687 71.098541
-0.45888528 -0.4745152 71.112419
-0.34982577 -0.47029129 71.118797
0.54215145 -0.48584041 71.121719
0.6914885 -0.49174139 71.127647
-9.0385847 -0.20665777 71.192307
-8.8634644 -0.30149543 71.05822
-8.3624573 -0.32963511 71.189789
-7.7925525 -0.34214914 71.15287
-7.3881655 -0.23609746 71.165062
-1.5046359 -0.30326319 71.151283
-0.65889019 -0.35543558 71.168533
-0.48490825 -0.31411219 71.109947
-0.36062902 -0.27558094 71.134605
0.39891151 -0.20544636 71.09053
0.56400591 -0.22751097 71.149391
0.6964758 -0.30115047 71.092804
-21.43012 -0.048851132 71.160324
-9.0425959 -0.035659552 71.199341
-8.7659159 -0.10621522 71.073868
-7.9612589 -0.09289974 71.180527
-7.3841205 -0.092570662 71.166298
-6.9780526 -0.058488607 71.143669
-6.2824154 -0.083146095 71.125778
-6.1629486 -0.14273286 71.141174
-1.6306522 -0.018958211 71.195786
-1.5395913 -0.17419422 71.183731
-0.66954803 -0.17215407 71.137749
-0.44616356 -0.087742247 71.153893
-0.35879597 -0.080538012 71.142502
0.53479737 -0.086916268 71.087112
0.68788224 -0.084623501 71.120209
-8.8507175 0.14988953 71.059433
-8.7556057 0.18931866 71.137703
-8.310504 0.17472589 71.070381
-8.1145067 0.18231082 71.03997
-7.735745 0.10253102 71.146637
-7.3212161 0.085518956 71.177841
-6.8521261 0.10403204 71.145393
-6.2968955 0.079529703 71.151192
-5.8906975 0.15746188 71.182861
-5.6624064 0.18687177 71.12574
-4.8708591 0.18621004 71.134247
-4.6439624 0.16889763 71.158348
-3.9583206 0.15421557 71.103745
-3.6737218 0.16133583 71.100319
-1.484911 0.13723187 71.15641
-0.68675137 0.056355655 71.125336
-0.45897353 0.11147907 71.145927
-0.36820647 0.14692883 71.136032
0.67281979 0.13533504 71.120941
-8.6882467 0.20021117 71.171387
-1.5509832 0.21147311 71.177002
0.55710101 0.21845472 71.115524
0.64824724 0.2449249 71.1549
-1.4999056 -3.4304869 71.241959
-8.4674253 -3.2176118 71.227898
-1.5127118 -3.2042894 71.311905
-0.25549006 -3.2057469 71.230194
-8.7674351 -3.0191722 71.325264
-8.2239275 -3.1238828 71.30941
-7.9255147 -3.0512352 71.31131
-7.621448 -3.1057377 71.353271
-7.5887518 -3.1018467 71.355232
-7.2683206 -3.124984 71.36779
-7.1816149 -3.0485847 71.283455
-6.815033 -3.0671883 71.326164
-6.6697063 -3.0764971 71.318024
-6.479486 -3.0646379 71.268898
-6.1587691 -3.0762839 71.28624
-5.973393 -3.0242949 71.297134
-4.7750211 -3.0396752 71.35627
-3.8310814 -3.0123029 71.213959
-3.6945398 -3.0610869 71.339119
-2.6243348 -3.1083822 71.269646
-2.5624743 -3.0897417 71.330147
-1.6235914 -3.1674452 71.333122
-1.527523 -3.0252504 71.220192
-0.060543776 -3.0095649 71.207077
-8.8658028 -2.8792949 71.316933
-8.7281008 -2.8980839 71.331444
-8.5527897 -2.9833937 71.332504
-8.1590309 -2.9368315 71.38958
-7.8674083 -2.9455414 71.333168
-7.7163401 -2.9475551 71.278885
-7.5406446 -2.9334183 71.324371
-7.2677259 -2.9402792 71.331398
-7.1089644 -2.9263723 71.323799
-6.9101129 -2.897979 71.294029
-6.6925788 -2.8886836 71.316185
-6.4969115 -2.8815119 71.294037
-6.2928753 -2.8770187 71.279831
-6.1080928 -2.890825 71.276093
-5.9356031 -2.8835042 71.275818
-5.7696862 -2.9585166 71.315361
-5.0316324 -2.9526987 71.318359
-4.9039884 -2.8621051 71.358871
-4.691288 -2.9621961 71.331482
-4.4065266 -2.9662163 71.381256
-4.260541 -2.9837737 71.394112
-4.1524725 -2.9661713 71.322968
-3.8969882 -2.9306421 71.330811
-3.6920574 -2.8703461 71.347847
-3.5300162 -2.9233932 71.257584
-3.2625842 -2.9496903 71.300781
-3.0734887 -2.9328103 71.262314
-2.8974175 -2.9152813 71.252045
-2.6375628 -2.8974113 71.273254
-2.5479052 -2.8662207 71.275673
-2.2603731 -2.9408126 71.290161
-1.851441 -2.8487318 71.22506
-1.7746519 -2.9376581 71.314026
-1.4990507 -2.8968761 71.248558
-1.0912584 -2.9410093 71.239021
-0.80058193 -2.9089189 71.269905
-0.65423459 -2.8780146 71.279297
-0.46269357 -2.8709912 71.250626
0.57731819 -2.8995426 71.270432
-21.497215 -2.6064596 71.339737
-8.8894863 -2.6570911 71.326416
-8.7619524 -2.7229702 71.357185
-8.5241776 -2.6875148 71.241623
-8.3381901 -2.7091427 71.245163
-7.2080412 -2.6404619 71.321716
-7.0281067 -2.7920928 71.344414
-6.9176459 -2.7229626 71.282936
-6.6835384 -2.6946573 71.298431
-6.5504775 -2.6826744 71.315666
-6.2605772 -2.6699016 71.316086
-6.1174507 -2.7094448 71.290825
-5.9415402 -2.6961408 71.273582
-5.0974302 -2.608686 71.262833
-4.9955626 -2.6313052 71.336128
-4.7535052 -2.6608658 71.382538
-4.0061607 -2.7739027 71.224373
-3.9092908 -2.7042665 71.279312
-3.6965225 -2.7073827 71.357399
-2.888031 -2.78513 71.261803
-2.6312263 -2.7026443 71.280022
-2.5542438 -2.7128706 71.271751
-2.0812056 -2.6419466 71.364326
-1.4933878 -2.6977096 71.211075
-1.3749622 -2.7250714 71.268776
-0.68830252 -2.7064955 71.275078
-0.45113915 -2.6932178 71.252983
-0.34813786 -2.7293639 71.230148
-0.092472434 -2.749424 71.276413
0.43090886 -2.6493115 71.210114
0.73303604 -2.7134352 71.313461
-8.8997183 -2.5009258 71.32122
-8.7460861 -2.4506905 71.31163
-6.8598604 -2.4215488 71.344025
-6.6492052 -2.5468278 71.338638
-6.5753474 -2.4996669 71.319855
-6.2624917 -2.472168 71.32888
-6.1123228 -2.4844811 71.308823
-5.9352508 -2.504328 71.290794
-5.093277 -2.4107301 71.261894
-4.9931746 -2.4378533 71.336937
-4.7523298 -2.4122128 71.38681
-4.0060196 -2.4999795 71.233009
-3.8727431 -2.5072722 71.299812
-3.701791 -2.491658 71.353722
-2.8668025 -2.5927405 71.215576
-2.634321 -2.4883687 71.27861
-2.566386 -2.5081735 71.271011
-1.4908922 -2.4818406 71.209091
-0.99369574 -2.5987446 71.350288
-0.63817596 -2.4211395 71.322983
-0.45153421 -2.4894915 71.274765
-0.2731638 -2.5940883 71.23674
0.063409567 -2.4094105 71.297775
0.57764208 -2.417959 71.236816
0.66095662 -2.4840212 71.202316
-8.8886633 -2.3047056 71.329491
-8.7513399 -2.3191059 71.296989
-7.7908897 -2.2849309 71.372955
-7.5915127 -2.3230472 71.398949
-7.3707027 -2.3373079 71.346367
-6.848176 -2.3915863 71.356476
-6.4640336 -2.327225 71.279877
-6.2857413 -2.2917316 71.306831
-6.0835137 -2.2846367 71.302727
-5.9244256 -2.3387711 71.302238
-5.0971088 -2.2139392 71.273399
-4.9875574 -2.2430782 71.326431
-4.0066233 -2.2626777 71.24279
-3.8799207 -2.221211 71.314034
-3.6937628 -2.3037937 71.3535
-2.8664398 -2.3874807 71.220459
-2.6496148 -2.2996168 71.265991
-2.5653765 -2.3102858 71.272118
-1.610162 -2.2764597 71.206055
-1.5050405 -2.2936385 71.230408
-1.3733354 -2.3626637 71.234276
-0.44108903 -2.2908342 71.263145
-0.24015594 -2.2155566 71.369522
-0.12997627 -2.3794651 71.30732
0.019239545 -2.3388309 71.346634
0.52494788 -2.3777804 71.201401
0.73012018 -2.2482457 71.326408
-21.438305 -2.1107986 71.315002
-8.9059229 -2.0360425 71.315697
-8.7779694 -2.1077764 71.287857
-7.0564251 -2.0825701 71.301468
-6.6225691 -2.076025 71.29303
-6.4744987 -2.0495617 71.314552
-6.2942581 -2.1057601 71.319504
-6.1333365 -2.1009848 71.318634
-5.9231973 -2.1105306 71.301407
-4.907392 -2.1216938 71.382607
-4.7543678 -2.1835427 71.397766
-3.919939 -2.0316453 71.330002
-3.7022181 -2.1103408 71.347145
-3.5896783 -2.1022291 71.372879
-2.8631914 -2.1223774 71.221687
-2.6484141 -2.1084337 71.279625
-2.5511217 -2.1327777 71.283653
-1.649413 -2.089469 71.293449
-1.4859805 -2.0943344 71.256966
-1.3648642 -2.033128 71.279915
-0.75840533 -2.158633 71.300209
-0.43881789 -2.1088095 71.254463
-0.33687079 -2.1225615 71.213661
-0.04275322 -2.181546 71.225388
0.11908448 -2.1338356 71.326248
0.70937896 -2.0850277 71.341019
-21.444992 -1.8836795 71.3442
-8.9041452 -1.8577349 71.345787
-8.7519016 -1.8684009 71.236893
-8.4397573 -1.8226368 71.307938
-7.568944 -1.9055065 71.370895
-7.278646 -1.9274287 71.343155
-7.0860438 -1.9655901 71.363708
-6.9110413 -1.9701555 71.255005
-6.7483153 -1.9705322 71.325027
-6.4366164 -1.8965855 71.3069
-6.2613063 -1.9101022 71.318657
-6.1160603 -1.9035101 71.325249
-5.9290805 -1.8927331 71.298019
-3.9995251 -1.9349941 71.231377
-3.6840813 -1.9150273 71.340744
-2.842828 -1.8707057 71.228935
-2.6558697 -1.951273 71.29409
-2.5429647 -1.9087454 71.271782
-1.6410733 -1.9773386 71.315834
-1.4869459 -1.8918856 71.224968
-1.3577703 -1.8646003 71.289848
-0.76129043 -1.9825817 71.290451
-0.42058125 -1.834675 71.249443
-0.29716885 -1.9112825 71.284691
-0.090843558 -1.9083166 71.301926
0.33681792 -1.9865142 71.247452
0.51987958 -1.9884819 71.201172
0.64537716 -1.8641604 71.22345
-8.933322 -1.6877117 71.302917
-8.7646866 -1.682673 71.313217
-7.6160154 -1.6810755 71.385262
-6.9451637 -1.6255214 71.356934
-6.7443171 -1.6743335 71.32605
-6.5422225 -1.6146915 71.36673
-6.274014 -1.6777 71.320755
-6.1107707 -1.6774931 71.322807
-5.9350019 -1.6929395 71.294998
-3.8742433 -1.7033172 71.322891
-3.7033594 -1.7430955 71.341934
-2.872308 -1.6655905 71.2248
-2.6709321 -1.7392216 71.251907
-2.5495887 -1.6924958 71.294411
-1.6186211 -1.7784761 71.217026
-1.4852483 -1.6830285 71.277252
-1.3729553 -1.698451 71.36795
-0.69419962 -1.7819158 71.315659
-0.44979659 -1.6952429 71.269798
-0.38600755 -1.6846533 71.243088
0.5270164 -1.6448489 71.223717
0.65392858 -1.6685696 71.21524
0.80911005 -1.6532582 71.38427
-8.8964567 -1.4535103 71.303345
-8.7741184 -1.4691991 71.30043
-8.4641008 -1.5249593 71.359261
-7.0872092 -1.49246 71.386093
-6.8696265 -1.5671096 71.39225
-6.7052402 -1.514154 71.297661
-6.4892292 -1.5228357 71.281448
-6.2652111 -1.4986534 71.336159
-6.1097407 -1.4810697 71.326584
-5.9426422 -1.4799832 71.309738
-3.6755638 -1.5021467 71.343422
-2.6317711 -1.4582011 71.259865
-2.5463278 -1.5234276 71.327118
-2.2933276 -1.4881321 71.380707
-1.6622586 -1.5233945 71.370865
-1.4926958 -1.4871575 71.276657
-1.3579059 -1.4983975 71.351952
-0.87191147 -1.5321833 71.258858
-0.73409808 -1.5224013 71.317085
-0.47013116 -1.4981291 71.295624
-0.30332413 -1.4886103 71.232689
0.16067123 -1.5755153 71.268837
0.54132819 -1.5102592 71.22049
0.66362202 -1.45578 71.270477
-8.8967695 -1.2712432 71.34816
-8.7756538 -1.2314919 71.287407
-7.625452 -1.3186378 71.3946
-7.0360098 -1.3985487 71.366631
-6.4830427 -1.2811918 71.320976
-6.2708912 -1.2797158 71.324127
-6.1260438 -1.306754 71.333611
-5.926661 -1.2791911 71.319321
-3.856051 -1.2204376 71.337219
-3.6880352 -1.3129301 71.363243
-2.856112 -1.2205428 71.291519
-2.552736 -1.3147864 71.320381
-1.7917213 -1.2224845 71.205421
-1.5031803 -1.2847693 71.280556
-0.84449774 -1.3527907 71.284012
-0.45867565 -1.285269 71.292007
-0.38161135 -1.2283212 71.307869
0.54999465 -1.3419714 71.223663
0.69691658 -1.2916876 71.246269
-8.9098158 -1.0865599 71.291931
-7.0623679 -1.0406575 71.371208
-6.7714138 -1.0591954 71.301086
-6.4664812 -1.0889926 71.319885
-6.2686429 -1.1033597 71.342537
-6.1178679 -1.0912565 71.323532
-5.9270306 -1.0667439 71.314972
-3.6522937 -1.1171405 71.35289
-2.8912609 -1.0162158 71.232895
-2.6385889 -1.1269209 71.322067
-2.5678253 -1.083836 71.294518
-1.865793 -1.1951914 71.385948
-1.6641014 -1.0696926 71.260368
-1.4975836 -1.098658 71.263344
-1.1750402 -1.1360795 71.365295
-0.83323061 -1.1269964 71.293732
-0.72988939 -1.1861733 71.345886
-0.45804995 -1.1039861 71.263306
-0.35672221 -1.0933146 71.288498
0.35810247 -1.0900848 71.212524
0.50102282 -1.1376016 71.229424
0.63995886 -1.0979866 71.224434
-21.489956 -0.95004213 71.263992
-8.9132509 -0.9208113 71.343002
-8.7680359 -0.8469705 71.280983
-6.9264536 -0.80348563 71.370171
-6.6912169 -0.97021055 71.335754
-6.4623423 -0.91561294 71.307144
-6.2779989 -0.8964504 71.33931
-6.1118593 -0.90519601 71.323563
-5.9314518 -0.90989053 71.319527
-3.9793639 -0.81188011 71.281281
-3.6793966 -0.93604922 71.363876
-2.86375 -0.82757759 71.254501
-2.6563394 -0.90978956 71.289284
-2.5677814 -0.9421069 71.291122
-1.8187221 -0.88770354 71.215294
-1.4803826 -0.89226514 71.239174
-0.64869428 -0.99056542 71.319351
-0.4611789 -0.91078812 71.269409
-0.30460298 -0.87337387 71.298759
0.062354803 -0.98972571 71.30513
0.37896779 -0.81337065 71.225746
0.5328176 -0.99623597 71.206505
0.64463043 -0.8915571 71.222298
-21.439255 -0.72697735 71.37542
-8.9158077 -0.68630779 71.349266
-8.7279882 -0.678473 71.344818
-7.679637 -0.73503768 71.341125
-6.8830366 -0.71398968 71.31575
-6.727952 -0.66788954 71.371666
-6.4484153 -0.70050746 71.308586
-6.2666273 -0.71632165 71.347328
-6.1070294 -0.70312464 71.321274
-5.9130301 -0.70590794 71.318237
-5.0578012 -0.60169399 71.346001
-3.8844991 -0.66440547 71.324211
-3.6950397 -0.70147425 71.352768
-2.8472831 -0.67372817 71.265373
-2.6449385 -0.68527418 71.301613
-2.5464873 -0.69799328 71.314156
-1.8122845 -0.61861402 71.223549
-1.6396352 -0.79700565 71.341156
-1.4908186 -0.69558066 71.257812
-1.3596563 -0.72325724 71.247002
-0.43457833 -0.66979951 71.260849
-0.29579595 -0.76020467 71.277069
0.37907174 -0.61710006 71.220261
0.55358541 -0.73170352 71.226715
0.64272028 -0.63774824 71.22216
-21.439724 -0.49155885 71.303604
-8.9287729 -0.43383795 71.345627
-8.7720699 -0.423792 71.313225
-7.7748899 -0.507061 71.258606
-6.7850723 -0.49314559 71.386246
-6.4601922 -0.47776905 71.334007
-6.3075461 -0.4913103 71.346397
-6.1260085 -0.49200177 71.327408
-5.9126301 -0.4968226 71.324249
-5.0873656 -0.48014164 71.320328
-4.9697843 -0.47297084 71.382507
-4.7200842 -0.40300548 71.396637
-3.8977928 -0.45996237 71.307487
-3.6959429 -0.49170196 71.356392
-2.8582449 -0.49909481 71.275604
-2.6408715 -0.48040345 71.30397
-2.5525546 -0.4937759 71.294449
-1.789562 -0.41795349 71.214645
-1.4828962 -0.50169826 71.239883
-1.3790469 -0.49238712 71.211594
-0.44629961 -0.46387038 71.269394
0.37890103 -0.41640872 71.229813
0.66335177 -0.47966406 71.210739
-21.450352 -0.30300009 71.359764
-8.9472237 -0.2571781 71.304115
-8.7565451 -0.31035206 71.292282
-8.3681355 -0.25189257 71.302063
-6.8581896 -0.35124415 71.365921
-6.6280723 -0.29284436 71.331696
-6.4290676 -0.29535145 71.318611
-6.2570877 -0.30105177 71.337891
-6.1103435 -0.28918388 71.336899
-5.9108033 -0.29593211 71.349228
-3.8934364 -0.32170266 71.362
-3.7033563 -0.28243926 71.375168
-2.8789377 -0.39732075 71.258484
-2.6511762 -0.28207862 71.315231
-2.5573323 -0.29050151 71.314095
-1.7110884 -0.25801456 71.211021
-1.492234 -0.29386282 71.237244
-1.3978202 -0.29038644 71.209541
-0.71426523 -0.25868547 71.200691
-0.43054363 -0.29047233 71.271187
-0.27822331 -0.3924531 71.290436
0.65448958 -0.27501813 71.228714
-21.503883 -0.01883173 71.306236
-8.8901186 -0.024581512 71.304054
-8.7642441 -0.092819542 71.320236
-8.3690758 -0.0038557053 71.308739
-8.1401939 -0.18373871 71.290512
-6.7200265 -0.053887337 71.353836
-6.483758 -0.11913908 71.365852
-6.2900901 -0.12855734 71.367203
-6.1119509 -0.10509657 71.342072
-5.9181004 -0.065281563 71.324318
-5.0603733 -0.012720466 71.341331
-3.8545034 -0.093271554 71.351761
-3.7486138 -0.036526799 71.320961
-2.8740838 -0.19134289 71.255013
-2.6465285 -0.085582972 71.315521
-2.5593932 -0.097717352 71.330284
-1.4789022 -0.09031602 71.245819
-0.43121785 -0.067115478 71.277519
0.66257876 -0.091773719 71.248833
-8.9059324 0.14181674 71.267769
-8.6957312 0.15679415 71.303749
-8.1494656 0.11512959 71.309814
-7.9947705 0.13801277 71.258057
-7.7082114 0.041803896 71.39624
-7.5869942 0.12671816 71.275055
-7.1124568 0.14567685 71.386482
-6.9067254 0.11616603 71.32325
-6.6440864 0.11367548 71.36824
-6.5002947 0.12355921 71.35994
-6.2606382 0.10180306 71.348862
-6.1214447 0.066142447 71.328529
-5.9072638 0.080020666 71.336952
-4.7333593 0.16205984 71.214035
-3.737134 0.097608835 71.381065
-2.8591337 0.021735191 71.303642
-2.6433024 0.080511674 71.324364
-2.5729954 0.10202508 71.330841
-1.6644599 0.12977529 71.210327
-1.4983796 0.090690553 71.242699
-1.397005 0.12311631 71.229462
-0.70962119 0.15711796 71.223633
-0.43180969 0.098362528 71.27977
-0.32543719 0.13897806 71.241516
0.67443597 0.12456635 71.225159
-6.6782942 0.21951252 71.216675
-0.4484849 0.21971649 71.268967
-7.9742928 -3.2446189 71.440849
-8.7164278 -3.055829 71.437515
-8.2380581 -3.13064 71.445129
-8.1716852 -3.0841396 71.413818
-7.8572817 -3.1205935 71.400589
-7.6810217 -3.0951004 71.409119
-7.530654 -3.0509582 71.432732
-5.845737 -3.0751956 71.507683
-5.7491188 -3.0950243 71.542953
-4.8125176 -3.1047909 71.431511
-4.785574 -3.0662894 71.444885
-3.7120178 -3.0416768 71.41806
-8.8220787 -2.9233704 71.414536
-8.7126341 -2.8815634 71.458374
-8.4450569 -2.9466369 71.525108
-8.3563633 -2.9501462 71.450447
-8.0152941 -2.9492323 71.484177
-7.9230504 -2.9431584 71.464973
-7.6886101 -2.9218829 71.416313
-6.9607754 -2.8866901 71.535721
-6.0543971 -2.9062667 71.482803
-5.8516989 -2.9052334 71.512238
-5.7129936 -2.9137325 71.510948
-5.5610209 -2.9319494 71.475082
-5.2297769 -2.9732473 71.424522
-5.0221663 -2.8466942 71.485329
-4.8406954 -2.8787365 71.454483
-4.7429838 -2.9003749 71.453781
-4.5385981 -2.8990984 71.498764
-4.0502958 -2.879621 71.435272
-3.73329 -2.8679473 71.512207
-3.507122 -2.9944875 71.503914
-3.1222048 -2.8830245 71.509056
-2.869931 -2.953522 71.459625
-2.5873911 -2.826375 71.453384
-2.3177915 -2.8233089 71.402641
-1.8766612 -2.8424172 71.421654
-1.6821829 -2.8130789 71.428177
0.69551182 -2.8019805 71.490463
-8.8168993 -2.6992061 71.41626
-8.7299061 -2.7185872 71.470146
-8.4492416 -2.7020679 71.488098
-7.9605732 -2.6266797 71.441803
-7.7311702 -2.6712744 71.418213
-6.0735998 -2.7086539 71.400841
-5.8565049 -2.6986878 71.543823
-5.762579 -2.6975317 71.580124
-4.8134904 -2.6729126 71.445847
-4.7653828 -2.7351143 71.474686
-4.1325359 -2.7098284 71.547203
-3.9149611 -2.6818357 71.550362
-3.690484 -2.7172894 71.59269
-3.2657182 -2.7648478 71.538406
-3.1690745 -2.7034297 71.470024
-2.9542344 -2.6944642 71.49649
-2.2798629 -2.683856 71.43615
0.5690639 -2.6044445 71.5
0.7143808 -2.654731 71.471558
-8.8134413 -2.5557427 71.443062
-8.7198792 -2.5281577 71.478241
-8.5831108 -2.440696 71.539192
-8.286891 -2.4133034 71.507919
-7.7356348 -2.5460064 71.446915
-6.7937546 -2.5920205 71.516266
-5.8739676 -2.4516702 71.527397
-5.7740569 -2.4827697 71.538788
-4.8102517 -2.4802103 71.442329
-4.7610064 -2.5188065 71.464684
-3.663717 -2.4676471 71.408279
-3.3029568 -2.5432312 71.593773
-3.1010547 -2.5416775 71.550911
-2.2570071 -2.5832858 71.488594
-2.0849569 -2.4402759 71.530235
0.70288152 -2.5124304 71.467834
-8.8101215 -2.2817044 71.436012
-8.7207298 -2.3166504 71.477867
-8.5000095 -2.3291607 71.501266
-7.6553679 -2.2836235 71.405502
-6.5993557 -2.3260105 71.421616
-5.8928885 -2.2726243 71.462837
-4.8093762 -2.3204322 71.458916
-4.7593055 -2.2879441 71.458176
-3.7008829 -2.22293 71.446716
-3.5557561 -2.2284846 71.508133
-0.60539913 -2.2715745 71.407928
0.57939005 -2.2888303 71.523071
0.69507188 -2.3165028 71.46566
-8.8128767 -2.1112235 71.44986
-8.7159863 -2.1046064 71.480644
-8.3338995 -2.1392226 71.479637
-8.1168518 -2.0967779 71.52787
-7.6631336 -2.1131139 71.446991
-6.6211128 -2.0479448 71.478867
-5.8485503 -2.0865676 71.513878
-4.846427 -2.1007853 71.440895
-4.7546101 -2.1115515 71.510506
-3.8854227 -2.0980682 71.447884
-3.7083282 -2.0501323 71.436539
-2.8453193 -2.0947902 71.546349
-2.6460097 -2.0673223 71.448479
-1.7787874 -2.0319996 71.438652
0.72061557 -2.0785148 71.454094
-8.8133287 -1.908703 71.450523
-8.7176018 -1.9036645 71.488136
-8.4853306 -1.927524 71.494125
-8.2946882 -1.8152046 71.529587
-8.1351538 -1.8799899 71.521553
-6.1288576 -1.9527856 71.443428
-5.903039 -1.8719218 71.480438
-5.7562356 -1.8554881 71.548149
-5.026104 -1.9947293 71.482712
-4.8898654 -1.9368798 71.492912
-4.7307577 -1.9017277 71.508507
-3.9151893 -1.8005106 71.403793
-3.6748743 -1.905598 71.44886
-3.5838714 -1.8164417 71.448761
-2.604311 -1.9214873 71.401283
-2.5326083 -1.9693942 71.436096
-2.323231 -1.8967253 71.446274
-1.9433084 -1.8547468 71.426086
0.71343458 -1.8972143 71.465393
-8.8107653 -1.6787622 71.447617
-8.702817 -1.7020267 71.501198
-8.5471249 -1.7172531 71.546127
-8.1459503 -1.7064548 71.478958
-6.5036068 -1.7942443 71.539749
-6.2949586 -1.7877643 71.50148
-5.8536339 -1.7174833 71.514526
-5.7857537 -1.6823844 71.565598
-5.0071077 -1.7152488 71.540741
-4.889534 -1.6399592 71.544868
-4.7452331 -1.6956785 71.497177
-3.946728 -1.6773257 71.491928
-3.6706865 -1.6734291 71.44857
-3.5271301 -1.6640934 71.518753
-2.6820278 -1.6840324 71.464195
-2.5062828 -1.7482187 71.43898
-2.320286 -1.6759622 71.44458
0.67896557 -1.645442 71.465012
-8.8291073 -1.4986235 71.442223
-8.7104845 -1.5002911 71.505035
-8.4906187 -1.5280463 71.559715
-8.35709 -1.422783 71.440681
-7.910511 -1.471411 71.458679
-6.3352261 -1.5155536 71.509499
-6.1396942 -1.5240438 71.543732
-5.9232235 -1.4944677 71.445862
-5.7805462 -1.506038 71.5485
-4.943244 -1.4388067 71.531204
-4.737535 -1.4738928 71.53347
-3.8645518 -1.4858568 71.492569
-3.6823502 -1.4784924 71.493492
-3.5116816 -1.4630086 71.544983
-3.2799516 -1.5181577 71.506546
-3.1518974 -1.4563065 71.515762
-2.8903568 -1.5137466 71.428413
-2.7069383 -1.5278695 71.496826
-2.1528647 -1.511312 71.411156
-1.9370015 -1.5089276 71.459045
-1.5354438 -1.4990931 71.407425
0.73759675 -1.4248378 71.419418
0.82972312 -1.4783574 71.525551
-8.8119841 -1.2694683 71.424355
-8.7108603 -1.3075277 71.507835
-8.2864418 -1.2210486 71.533218
-7.8734512 -1.3425163 71.406006
-7.0231805 -1.2710921 71.534462
-6.9397926 -1.2612814 71.531296
-6.0458307 -1.2317314 71.493896
-5.8721342 -1.2881842 71.504738
-4.906486 -1.2408808 71.531136
-4.7460709 -1.2570548 71.475266
-4.584558 -1.3750646 71.585442
-3.8597646 -1.2879703 71.461197
-3.6850452 -1.2898757 71.486351
-3.5310848 -1.2587414 71.519127
-3.3671536 -1.3094251 71.533859
-3.0532582 -1.3275019 71.466499
-2.7306118 -1.2444433 71.485001
-2.511879 -1.3217335 71.461723
-2.2338097 -1.359422 71.48246
-1.7821093 -1.3662777 71.429558
0.58078361 -1.3021502 71.55526
0.71406013 -1.3038763 71.468575
0.85267115 -1.3159766 71.48793
-8.8097992 -1.1098186 71.458939
-8.7094393 -1.0997485 71.512413
-8.4545631 -1.0578456 71.519196
-7.8968697 -1.0784539 71.434456
-5.8611894 -1.1586373 71.532005
-5.7741036 -1.0763099 71.570015
-4.8831568 -1.0158741 71.53302
-4.7222495 -1.1023114 71.54908
-4.5438499 -1.0950965 71.581383
-3.8504696 -1.0375612 71.459381
-3.6798129 -1.1042602 71.469246
-3.5332534 -1.1467105 71.547569
-3.2982101 -1.161243 71.520554
-2.9659252 -1.1564747 71.437958
-2.6505671 -1.0505495 71.425018
-2.5552197 -1.1115593 71.484436
-2.3061323 -1.1252928 71.485466
-2.0726845 -1.0371404 71.44455
-1.5020115 -1.0314387 71.429153
-0.41732121 -1.0694069 71.401825
0.72837907 -1.1165648 71.514839
0.83205223 -1.1547716 71.454712
-8.816535 -0.88187855 71.462349
-8.7122507 -0.90373158 71.511566
-8.4704704 -0.93942773 71.510521
-7.5248399 -0.90667832 71.430611
-7.3096981 -0.94560826 71.487358
-6.1333137 -0.82111853 71.409836
-5.8701596 -0.89451545 71.505768
-4.8817501 -0.83876222 71.538284
-4.693934 -0.89521778 71.538742
-4.5972543 -0.84991413 71.579079
-3.9227138 -0.98759609 71.416679
-3.6728587 -0.87777823 71.47065
-3.5655005 -0.88581693 71.494255
-3.3378382 -0.88405752 71.532303
-2.8881285 -0.96629322 71.467735
-2.6734984 -0.91627216 71.445564
-2.5851963 -0.98916852 71.492844
-2.3561146 -0.88631797 71.443092
0.56679177 -0.85172045 71.536285
0.72015774 -0.9282136 71.50676
-21.38448 -0.77219009 71.488693
-8.8128338 -0.68317509 71.443062
-8.7136183 -0.69936323 71.515869
-8.2739191 -0.62958026 71.53772
-7.3716097 -0.63655949 71.45681
-6.4604931 -0.72788566 71.48571
-6.0708251 -0.74917245 71.592819
-5.8809557 -0.70489556 71.499184
-5.0252867 -0.70800549 71.523827
-4.8967686 -0.66131568 71.512688
-4.7400775 -0.72513384 71.510971
-3.7139614 -0.70594013 71.435646
-2.9385812 -0.76846063 71.477478
-2.662004 -0.67611587 71.4394
-2.5806425 -0.77689129 71.472641
0.57106709 -0.62739402 71.551804
0.72886717 -0.68747962 71.512901
-21.391151 -0.53003514 71.510048
-8.8142433 -0.50311738 71.456322
-8.7075214 -0.49048465 71.517265
-8.4508877 -0.47383028 71.50103
-8.3794785 -0.42273402 71.481796
-7.6078076 -0.4667061 71.575333
-7.0926614 -0.59646744 71.402252
-6.3928976 -0.4756645 71.506836
-6.14008 -0.5995447 71.465599
-5.8725443 -0.49173948 71.512573
-5.7537713 -0.51775396 71.59346
-4.8585777 -0.49481905 71.437317
-4.7443423 -0.51792586 71.48423
-3.6804335 -0.48156488 71.415184
-2.5428319 -0.56981838 71.446106
0.7058742 -0.50792617 71.517311
-21.444706 -0.23738533 71.46109
-8.806921 -0.27350751 71.460709
-8.7108431 -0.29526943 71.519341
-8.5350685 -0.3473641 71.565353
-8.3415279 -0.29602051 71.512947
-7.9347868 -0.22287679 71.472466
-7.6250587 -0.20439035 71.590523
-7.5230293 -0.34039512 71.459328
-6.8701429 -0.24017042 71.416832
-6.2436023 -0.24422681 71.449471
-6.129653 -0.29362643 71.496788
-5.9298873 -0.33903971 71.526642
-5.781106 -0.20168245 71.563332
-5.0368795 -0.38190526 71.557953
-4.8395166 -0.31451821 71.474609
-4.7435064 -0.30140457 71.490433
-3.8001375 -0.36708581 71.425262
-3.6715639 -0.30883414 71.431396
0.55336928 -0.31218874 71.534782
0.73474151 -0.31571722 71.507645
-8.8376408 -0.091861695 71.449677
-8.710124 -0.094352134 71.521568
-8.4993706 -0.11659545 71.552391
-8.2263584 -0.15760678 71.516121
-7.8589282 -0.069813572 71.443535
-7.531209 -0.051089406 71.457169
-6.848999 -0.19587052 71.577408
-6.4618835 -0.19684672 71.506424
-6.2745762 -0.17505956 71.597435
-6.0396991 -0.073292792 71.487686
-5.8654547 -0.079906002 71.523079
-5.7991838 -0.10775799 71.589264
-4.8652444 -0.066916227 71.508209
-4.7455688 -0.10185093 71.502861
-3.6733079 -0.10119471 71.427979
0.73945892 -0.11092213 71.506218
-21.412842 0.057559252 71.513824
-8.801424 0.12201595 71.426086
-8.7098846 0.092168383 71.525116
-8.4783707 0.086233199 71.544731
-8.2777119 0.15451474 71.492935
-8.1175613 0.17433257 71.490204
-7.9227676 0.076864801 71.517128
-7.660419 0.11886305 71.463379
-7.4961219 0.13976355 71.454773
-7.3354325 0.1251356 71.448875
-7.0977707 0.14079541 71.463722
-6.9319191 0.1817003 71.425316
-6.6249218 0.099448681 71.412422
-6.5264888 0.13003874 71.41069
-6.2659607 0.020563602 71.44175
-6.1360822 0.086488485 71.4282
-5.8930521 0.10669762 71.581551
-5.7850881 0.11477637 71.579971
-4.9034057 0.084471762 71.455597
-4.7424731 0.089779027 71.503716
-3.6713707 0.096913666 71.435165
-2.7329786 0.093859434 71.463905
0.76019001 0.039957821 71.507721
-8.3422518 0.24900866 71.457176
-7.2057781 0.20697558 71.40361
-3.6475883 0.2076596 71.449394
-2.5026941 0.20497179 71.499748
-6.0892372 -2.8520684 71.775909
-5.8265667 -2.8633184 71.672867
-5.7801294 -2.8571644 71.682411
-5.5968246 -2.9180877 71.60804
-5.3276343 -2.9222796 71.624466
-4.7220726 -2.912426 71.624725
-7.0016308 -2.6571991 71.673264
-6.1400299 -2.6201148 71.787216
-5.8305879 -2.7039452 71.685387
-5.7844939 -2.7038555 71.717674
-4.732934 -2.6183949 71.625854
-3.7818205 -2.7226777 71.612907
-8.3807344 -2.4247494 71.771385
-5.8316674 -2.506598 71.686417
-5.7586594 -2.4700041 71.702202
-4.7252688 -2.4606643 71.638786
-3.7524035 -2.4700396 71.651657
-6.8356199 -2.3816299 71.656677
-6.4675465 -2.3702703 71.629967
-6.1012092 -2.3383317 71.767952
-5.8278928 -2.3151207 71.693863
-5.7713313 -2.2815709 71.683823
-4.7085781 -2.3079224 71.613647
-8.3765783 -2.1164172 71.775421
-6.8448305 -2.0855715 71.685524
-6.4594641 -2.0796113 71.624603
-5.8302083 -2.0919881 71.698257
-5.7758236 -2.090239 71.725204
-4.6816034 -2.0181415 71.643654
-7.6073036 -1.8066628 71.617523
-6.8326836 -1.8150923 71.656952
-6.3225422 -1.8166109 71.652985
-5.8314252 -1.8980304 71.705818
-5.7697544 -1.9001831 71.699577
-4.8021464 -1.8217845 71.617615
-4.7230902 -1.9148321 71.625763
-5.8348126 -1.6941704 71.692535
-5.7710891 -1.7180294 71.743393
-4.7107248 -1.674463 71.632729
-7.5993004 -1.5218775 71.615234
-6.5215273 -1.5208421 71.678406
-5.8390536 -1.470431 71.683601
-5.7630243 -1.5122738 71.719955
-4.7103643 -1.5054981 71.630684
-7.923502 -1.2602298 71.640762
-7.4393568 -1.2708148 71.712616
-6.3505182 -1.2531805 71.653061
-6.1454949 -1.2521336 71.711128
-5.8306837 -1.279514 71.713142
-5.7599373 -1.300204 71.727104
-4.700336 -1.2795022 71.631737
-4.5887294 -1.3261318 71.664185
-5.843976 -1.0844918 71.707947
-5.7714171 -1.0893353 71.715454
-4.6703424 -1.0952774 71.621231
-4.588604 -1.0717061 71.612976
-8.0756664 -0.97218406 71.642296
-7.6081467 -0.9776895 71.739098
-6.6742706 -0.96180093 71.683052
-5.8384809 -0.89203888 71.712166
-5.7683439 -0.92236614 71.692932
-4.8790598 -0.82212412 71.641891
-4.6866217 -0.88940167 71.65863
-8.3727293 -0.66899586 71.796707
-8.0764332 -0.7041775 71.649605
-7.9478993 -0.72974467 71.606964
-7.775301 -0.70219976 71.75354
-6.3431215 -0.69346964 71.652435
-6.1409779 -0.71538591 71.729012
-5.8308768 -0.6897921 71.715385
-5.7618318 -0.73047328 71.694908
-4.6759644 -0.70430928 71.630135
-4.5727129 -0.71029937 71.649406
-8.6327457 -0.58387375 71.601418
-7.7620506 -0.41553819 71.765747
-6.2700729 -0.4436329 71.611351
-6.0950818 -0.46945691 71.629868
-5.8218613 -0.49392569 71.73056
-5.7666922 -0.51776248 71.696259
-4.7296991 -0.40075213 71.639153
-21.424782 -0.26255703 71.698326
-8.6351776 -0.38314688 71.607391
-5.8363357 -0.27194974 71.7117
-5.7766185 -0.28076544 71.705009
-4.721303 -0.26438588 71.638916
-8.6411953 -0.1789664 71.614891
-6.0925722 -0.16324049 71.614761
-5.8320665 -0.10537276 71.688545
-5.773385 -0.096379675 71.725586
-4.7161093 -0.061568458 71.668007
-8.6360664 0.020342588 71.608398
-6.9171052 0.11534959 71.661621
-6.2735424 0.10292482 71.624336
-5.822721 0.10805626 71.70639
-5.7573457 0.11946718 71.696747
-4.6753464 0.022527933 71.72934
-5.8274984 0.21789587 71.774452
-5.7817111 -2.8276649 71.909149
-8.2255526 -2.7015767 71.800331
-6.0466886 -2.7216172 71.869553
-5.8723221 -2.7215738 71.815857
-5.7485023 -2.7019539 71.941864
-6.0815516 -2.4596357 71.857697
-5.7505569 -2.5072484 71.947372
-6.0877647 -2.2343888 71.863152
-5.8548698 -2.2776875 71.851883
-5.7765179 -2.2533917 71.854584
-6.0730076 -2.0550234 71.854721
-5.8126907 -2.0841155 71.904358
