# .PCD v0.7 - Point Cloud Data file format
VERSION 0.7
FIELDS x y z
SIZE 4 4 4
TYPE F F F
COUNT 1 1 1
WIDTH 1528
HEIGHT 1
VIEWPOINT 0 0 0 1 0 0 0
POINTS 1528
DATA ascii
-5.6051211 0.001265645 40.502754
-5.6215749 0.37922293 40.51041
-5.5841722 0.26403338 40.536659
12.531055 0.92929935 40.435524
13.558308 0.93915772 40.589401
-25.06212 4.8542833 40.560425
10.545286 5.5449901 40.555347
-7.3135734 -2.3141968 40.762058
2.9493074 -2.3349049 40.619328
8.8382206 -2.374783 40.648029
9.2015438 -2.3641768 40.628876
11.400733 -2.3535738 40.781868
22.739075 -2.0136666 40.610847
22.713448 -1.8090627 40.615753
22.677597 -1.4761839 40.628597
-7.3099937 -1.1481185 40.774635
2.7188468 -1.0684108 40.749207
2.8434317 -1.1529034 40.739841
2.585124 -0.99334502 40.700581
-7.2572117 -0.0077190995 40.799507
25.371759 0.088340878 40.682678
25.314699 0.29325107 40.70911
25.256668 0.46022078 40.676365
25.330605 0.68976754 40.608677
25.334507 0.95098794 40.614151
25.273582 1.1063846 40.620483
-5.7103148 3.5285954 40.745956
-22.292007 5.6930089 40.787128
10.572495 5.8311925 40.75351
1.8139145 -2.3549047 40.963955
8.1114941 -2.3930969 40.967739
10.980322 -2.345365 40.942802
11.671683 -2.3433309 40.884109
-7.3495088 -1.2871839 40.850845
-7.276804 -1.008972 40.829964
-7.3659134 -0.8292405 40.808117
-7.319705 -0.65434498 40.822681
-7.2995968 -0.41794524 40.834412
-7.3358889 -0.23834151 40.823742
-7.2859788 -0.086778432 40.850967
25.345535 -0.16696888 40.862492
-7.2908163 0.0019088984 40.855114
25.303082 0.14397305 40.914276
-7.2903099 0.230773 40.849777
-7.3570065 0.57582247 40.844509
-22.352365 0.99260831 40.871391
25.305809 0.85582036 40.998943
25.35696 1.0250449 40.9175
34.887268 3.3121839 40.940689
-5.6618156 3.421828 40.871151
-24.851662 4.3859172 40.973007
1.4805521 -2.3423538 41.156303
2.9579251 -2.352052 41.123379
8.2724733 -2.3693123 41.01165
11.622418 -2.3602345 41.110249
12.76683 -2.3636167 41.005596
-7.3508029 -1.2508345 41.057114
2.8462427 -1.1648679 41.160717
25.321259 -0.43376976 41.01207
25.326542 -0.26763451 41.017632
25.30077 -0.036070585 41.163105
12.666349 0.94638056 41.108669
-22.291122 1.3159719 41.012646
14.472717 4.0327377 41.184212
14.617625 4.0487347 41.122681
2.1852736 4.7570562 41.130325
10.587181 5.3947892 41.111118
10.557546 5.5792966 41.073917
10.579636 5.7549086 41.196533
10.557935 5.8153195 41.058876
10.545689 6.0210657 41.053108
1.0711217 -2.3493569 41.222736
1.2561723 -2.3625746 41.245975
1.8029516 -2.3454747 41.312843
2.5956519 -2.3583293 41.238762
2.8750601 -2.3261757 41.200508
11.101094 -2.3572397 41.390728
12.159163 -2.3547761 41.244228
12.743519 -2.3724356 41.372154
-7.3047142 -1.3664832 41.287598
25.326767 -0.087413251 41.291794
25.274876 0.17448515 41.31657
25.296417 0.20589036 41.227226
25.34466 0.40993273 41.377716
11.712182 0.93494749 41.396397
13.608968 0.94505686 41.251038
25.276474 1.271961 41.225735
-3.6628962 2.6428034 41.302536
14.535748 3.6829152 41.230228
14.545966 3.9047813 41.254486
10.587996 5.342278 41.210785
10.577991 5.5362282 41.208298
1.1772331 -2.3452482 41.494064
1.4744101 -2.3443472 41.500599
2.2801216 -2.3522916 41.450119
2.782032 -2.3429546 41.447773
3.0853322 -2.3549459 41.449421
10.824026 -2.3573918 41.590454
23.96809 -1.0727458 41.49498
24.698902 -0.96149623 41.532448
24.570234 -0.74858546 41.592346
23.975367 -0.58819175 41.51223
24.754543 -0.29351541 41.576859
-7.2885466 -0.0012431145 41.471386
23.917652 -0.10135269 41.473297
25.26058 0.33238751 41.492393
24.437977 0.66848868 41.534203
24.737198 0.60826415 41.580578
24.693497 0.83040649 41.549316
24.707623 1.0551736 41.570187
24.657345 1.2791467 41.538872
24.19241 1.5336591 41.593403
-3.8178296 2.63732 41.415371
34.895824 3.4433944 41.54393
-2.2001851 4.7289495 41.414104
-2.1415014 4.7638025 41.585781
-0.26207852 4.7251706 41.450066
2.382328 4.7506232 41.457386
10.627203 4.8730526 41.433773
-7.2298894 -2.7174349 41.614353
-7.1938605 -2.5943065 41.667545
-7.2466741 -2.3766756 41.683754
0.8526001 -2.3655369 41.687542
1.3015786 -2.3691669 41.717415
2.46457 -2.3608491 41.762951
20.592094 -1.6442058 41.787857
20.903713 -1.6138029 41.641502
21.46649 -1.6386347 41.745552
21.237747 -1.518604 41.730148
21.908541 -1.4237466 41.70163
21.408424 -1.3817101 41.721569
22.112324 -1.2830241 41.694225
20.9203 -1.1470952 41.719872
22.106552 -1.0453026 41.699287
-7.3061595 -0.44599777 41.658146
20.64315 -0.41376927 41.779053
-7.2331495 0.20395428 41.769051
23.896103 0.27014071 41.669788
24.812355 0.39025027 41.611816
24.133945 0.46142107 41.647881
24.466362 0.67152423 41.712681
25.228807 0.65563506 41.665001
12.293441 0.971479 41.798176
25.235411 0.90292102 41.749664
-3.7810726 2.6616769 41.692062
33.138302 2.7009203 41.724247
34.923435 3.172838 41.678654
0.99796963 -2.3812962 41.931232
11.891631 -2.3677869 41.991989
20.667698 -1.9183517 41.811306
20.858036 -1.3207408 41.808998
33.431721 -1.2363451 41.833145
2.7113383 -1.0553031 41.989712
20.865494 -1.0377536 41.821644
-7.2692022 -0.034011483 41.805008
-7.2527628 0.07841599 41.926517
12.000564 0.92070484 41.976143
19.672579 0.8001526 41.849186
19.909893 0.96390086 41.813572
-3.7114601 2.6109908 41.939178
10.662661 4.9040766 41.87323
0.48121631 -2.3924696 42.004219
2.7875581 -2.3673115 42.080788
2.9694808 -1.2859949 42.057507
2.6773386 -1.1510923 42.028355
2.8578305 -1.1286333 42.027328
-3.6927881 2.597342 42.115593
14.670949 3.953229 42.167107
13.061013 -2.390455 42.213753
12.258406 0.92237258 42.370605
14.709887 3.6678171 42.362194
10.679425 5.3368101 42.347385
9.8799019 -3.0249314 42.520634
-7.2016945 -2.2724347 42.510715
1.8915322 -2.3745055 42.445213
-7.1862164 -2.0998898 42.426304
-7.1657019 -1.7535094 42.438019
-7.2284603 -1.2989901 42.551113
-7.193038 -1.2547287 42.544216
2.8601248 -1.2488283 42.570747
2.6450486 -1.0075488 42.553505
2.8285501 -1.0888647 42.551552
-7.2318668 -0.61506677 42.557034
-7.2169561 -0.50450444 42.501095
-7.231926 0.066614926 42.569748
12.480696 0.87860155 42.45668
13.300016 0.88302517 42.459412
14.667299 3.8386049 42.402889
14.615124 4.0427804 42.487698
1.8788649 4.7361708 42.417633
10.650527 5.4877338 42.580364
-7.1967392 -2.3119237 42.717705
-7.1688533 -1.3203332 42.663063
2.6501083 -1.1803659 42.614746
-7.2366819 0.037167132 42.64238
13.05822 0.91466796 42.60593
9.591198 3.8100092 42.768211
0.50967491 4.6956778 42.765026
9.912219 5.2811208 42.792492
10.511352 5.3296666 42.764687
10.701654 5.3092546 42.691734
10.479733 5.5200238 42.787132
10.620447 5.5438218 42.767155
10.513329 5.7341795 42.782654
10.696652 5.7715654 42.663967
10.436043 6.8805814 42.795883
11.210135 7.2570076 42.719326
11.20629 7.515152 42.729225
11.07363 7.7849627 42.748566
2.8718607 -2.3805861 42.935295
13.070923 -2.3991451 42.934784
9.2018032 3.669199 42.895817
9.5641241 3.6950569 42.808968
9.2988434 3.8623104 42.877186
8.3439379 4.0613408 42.999428
9.3873777 4.0233274 42.871536
8.1491032 4.3346615 42.968082
8.8185673 4.210238 42.963947
9.6668749 4.2494016 42.802959
9.848938 4.3036594 42.860073
-1.9138961 4.7446785 42.944252
9.0059319 5.0355639 42.870632
8.7110119 5.8505068 42.874863
8.2511883 6.2971544 42.954102
9.0824175 6.2099447 42.952202
9.5464306 6.4620295 42.851295
8.6895447 6.6591287 42.985268
9.6267023 6.7174473 42.819271
7.98172 6.8413267 42.986511
10.432717 7.126564 42.806419
10.745589 7.9649386 42.819344
9.6525812 8.2678194 42.894451
1.1105974 -2.400403 43.087921
12.744384 -2.4089904 43.140079
2.0457213 -2.3983307 43.004101
18.237659 0.85515064 43.089195
33.292763 2.4410567 43.15778
8.2421379 3.8587093 43.004322
6.4954572 4.5359802 43.05806
0.70097303 4.691083 43.150257
6.1656656 4.707231 43.143501
5.818985 4.8337846 43.146523
5.9199567 5.0167098 43.14497
8.2610884 7.6671715 43.047615
0.44031322 -2.4288867 43.338257
12.989829 -2.4146805 43.302475
0.74193192 -2.3959856 43.307594
2.9329267 -2.3970177 43.249874
2.8331561 -1.2883639 43.391098
2.6319203 -1.1493683 43.334892
2.6350417 -0.93673348 43.36396
-7.1291676 -0.069737196 43.224739
-7.1644135 0.047080457 43.289429
12.448502 0.87732071 43.257721
12.769321 0.90990108 43.207447
-1.903986 4.715281 43.386272
2.5533299 4.7419872 43.39389
3.2300615 4.7268772 43.267143
-21.962036 5.6508546 43.340824
0.32520962 -2.4135284 43.51078
2.9904735 -2.3773432 43.553707
12.332325 -2.3992553 43.500465
-7.1051998 -1.4180242 43.567692
-7.1275616 -1.2495486 43.507977
2.9006679 -1.2785552 43.421509
2.7045708 -0.94293284 43.424919
-7.1153755 -0.33016795 43.538631
-7.1405115 -0.081921786 43.546692
14.789158 4.4729276 43.580078
1.4047861 4.6941257 43.505302
-21.904415 5.9299936 43.476692
-7.1045666 -2.452096 43.645977
12.866565 -2.417594 43.652458
-7.134532 -2.3262901 43.630131
0.52692759 -2.3977704 43.611038
-7.1268406 -1.3078728 43.643383
18.294851 0.83812809 43.7202
3.7862453 4.7251859 43.684273
3.9031515 4.7029824 43.694714
2.6913452 -1.2348387 43.986099
2.8199599 -1.2209228 43.969234
2.7150736 -1.0590974 43.876465
2.8911564 -1.1218945 43.899864
2.7089596 -0.91969204 43.968971
-21.895756 0.89841497 43.873608
-21.840961 1.1899571 43.850689
-2.3236041 4.7099943 43.8181
-1.2715099 4.7159595 43.854164
0.34944865 4.7052813 43.8097
3.5166726 4.7121449 43.80632
3.2602153 -2.4177272 44.18084
12.128983 -2.4326038 44.176407
13.049021 -2.4304671 44.123466
-7.0773554 -2.2638478 44.135391
-7.0830364 -1.3045599 44.148537
2.8154573 -1.3086404 44.004814
12.52405 -2.4251423 44.240555
-7.1539745 -2.2451103 44.338444
2.8776965 -2.3972216 44.301231
-7.0985622 -1.8664539 44.28059
-7.0475941 -1.4140428 44.241882
-7.0316401 -1.2862151 44.303883
-7.0178313 -1.0328736 44.31596
-7.0755138 -0.47047001 44.355293
-7.0615492 -0.12134361 44.293938
-7.0176611 0.12005618 44.306389
35.190632 4.1295867 44.394913
-3.4776514 4.6846452 44.233505
-0.27178395 4.6929121 44.278999
1.7669246 -2.4177909 44.437416
-7.0698423 -2.1816025 44.429001
2.7791028 -1.3231714 44.571552
2.9120448 -1.2378552 44.554958
2.6994967 -1.0781803 44.443993
2.9096539 -1.1631531 44.525486
2.6716402 -0.94480771 44.532631
-7.0970039 -0.72803092 44.442661
-7.106348 -0.29573888 44.420639
-7.0601406 0.017804623 44.430359
18.354778 0.73848391 44.491318
18.421743 0.75316679 44.415558
18.242025 0.84302443 44.415184
-21.847303 1.2413901 44.562706
-21.862387 1.5484557 44.561703
35.265846 3.3261397 44.443466
-1.0760002 4.6730556 44.439186
0.89716023 4.680469 44.584244
-7.0297384 -2.4331899 44.63895
0.2945261 -2.4366941 44.69854
1.0626011 -2.4281666 44.672863
18.307394 0.70847744 44.703117
1.1107093 4.6493168 44.739525
14.44881 -3.3698139 44.907127
0.41861033 -2.4433541 44.803528
2.6822114 -1.3112309 44.963318
2.7166853 -1.1245835 44.922611
2.5458293 -0.95203239 44.911316
18.320419 0.089649916 44.950848
-17.357254 0.49411851 44.998268
18.319618 0.62393081 44.851585
-17.338211 1.0418069 44.986671
-3.3754082 2.5505168 44.979542
1.1403081 -2.4340956 45.112347
2.8944142 -2.4217343 45.19833
-7.0363355 -2.2840648 45.012341
-7.0316243 -2.1221781 45.044586
-7.0178323 -1.49668 45.172112
-7.0062551 -1.3542076 45.111679
-7.0119767 -0.75510132 45.191376
-7.0204692 -0.35693133 45.131855
-6.8936162 0.30678236 45.053223
18.343405 0.36449593 45.09272
-6.863236 0.45549643 45.038998
18.313721 0.53606457 45.034359
-17.39336 0.767057 45.013145
12.328789 0.75039148 45.173241
12.425379 0.69375402 45.17865
18.37328 0.62448144 45.047565
12.359733 0.82255405 45.179596
16.591759 0.84579337 45.092751
-3.3664541 2.5599952 45.163464
-0.75925004 4.6433768 45.081287
0.0031940937 -2.4381816 45.398521
2.8409216 -2.4219935 45.207714
12.641212 -2.4587021 45.275402
-6.9807358 -1.2939829 45.363262
-7.0204287 -0.17314154 45.350128
-6.9957314 -0.052759469 45.259243
18.364916 0.56132251 45.309807
12.263823 0.67597443 45.350319
-3.5748663 2.432009 45.353226
-15.563307 4.8081403 45.289528
1.8007258 -2.4355407 45.473076
3.3254423 -2.4405706 45.595608
12.067362 -2.4733791 45.513443
18.41394 -2.4501545 45.493744
-6.9726677 -1.4102834 45.413734
-3.5273237 2.2949886 45.521156
-3.4596539 2.4632494 45.53252
-3.3079472 2.5229425 45.47385
-5.4505258 4.6692696 45.558174
1.6480794 4.6276512 45.418648
-21.71278 5.2668633 45.493332
0.31398451 -2.438374 45.600842
2.8149548 -2.4395721 45.687553
18.324375 -2.4596195 45.626999
1.1750071 -1.4370323 45.681679
1.2113783 -1.4324217 45.697689
1.2083254 -1.3610623 45.68137
18.431808 0.54051328 45.719196
-3.419085 2.3509467 45.679153
-3.341717 2.5077977 45.654095
-2.3317492 4.6726108 45.689152
1.2465305 4.6608815 45.710312
0.32548261 -2.4479425 45.898819
1.9098475 -2.4582558 45.805054
2.15961 -2.4600754 45.883205
2.2259195 -2.4505272 45.937038
18.379868 -2.4298158 45.810127
18.456079 -2.3091044 45.832573
10.096817 -2.0782204 45.85157
10.092569 -1.9938331 45.932369
10.09271 -1.694494 45.911316
-7.0152111 -1.459784 45.853943
12.580554 0.66246516 45.866302
18.460127 0.67175001 45.91803
0.031153589 4.643961 45.857414
0.29101586 -2.4488299 46.041523
18.489704 -2.2695992 46.01635
10.119898 -2.0250003 46.1404
18.475285 -2.1247773 46.079693
18.486767 -1.9152067 46.092373
-6.9625683 -1.7784181 46.121521
18.493229 -0.69999135 46.099159
18.386831 -0.59802067 46.121326
18.48621 -0.49102166 46.096176
10.038486 -0.050620601 46.13612
12.614832 0.62574244 46.060684
18.529566 0.64400554 46.142574
-3.7432823 2.2175446 46.167068
-3.4652128 2.2247381 46.186218
-0.93470168 4.6166005 46.032578
-6.8608232 -2.4670916 46.397404
1.4618411 -2.4452558 46.27816
1.8671291 -2.4401865 46.200485
10.137878 -2.2431684 46.263649
10.123049 -2.161869 46.250732
-6.8814225 -1.4065723 46.362324
-6.8670616 -1.3116484 46.230042
-6.8984365 -0.17837238 46.242622
-6.8836107 0.096236706 46.260822
3.0980666 4.6228061 46.272942
-6.795928 -2.445471 46.468716
0.048982382 -2.4565022 46.535332
0.89511156 -2.4660437 46.567791
0.6149689 -1.4185265 46.573414
0.63361114 -1.2839947 46.580898
18.603975 -0.37045622 46.511345
10.07453 0.0037045479 46.420845
-3.4880905 2.4903765 46.584049
-3.1781807 2.5903184 46.590496
-1.393594 4.6364689 46.429298
-0.43920869 4.6147952 46.56813
0.1356599 4.6341786 46.443573
1.4501231 4.6557007 46.56617
0.093892932 -2.4496126 46.734509
0.79253459 -1.3190169 46.72374
0.76619911 -1.0767187 46.746044
18.495487 -0.048475444 46.655857
-3.4448929 2.2950604 46.768883
-1.2203931 4.6209145 46.769104
-0.066446304 4.635911 46.791603
0.96923155 4.6317053 46.624016
0.5273726 -2.4663374 46.916401
8.5801039 -2.4378912 46.899944
-6.8362284 -2.3285832 46.879738
-6.7849364 -2.3428206 46.901367
-6.7497721 -2.1201332 46.89785
-6.8130102 -1.9076117 46.873669
-6.7315645 -1.8504723 46.896832
-6.8181677 -1.4609419 46.904358
-6.8047838 -1.2840577 46.901928
-6.8268623 -1.0673428 46.8899
-6.7828817 -1.0443667 46.95129
9.2980785 -1.0687186 46.880299
-6.8760328 -0.88616598 46.914192
-6.7519331 -0.8811847 46.976326
0.76360393 -0.94762605 46.81554
-6.8663568 -0.70907944 46.911602
-6.7292442 -0.72343701 46.974445
-6.723907 -0.54960692 46.916748
8.5510902 -0.2030406 46.953205
-6.8290887 -0.028285921 46.861221
8.5527115 -0.054428369 46.957222
-6.7145061 0.078464329 46.986973
8.5572186 0.071847498 46.968937
-3.3782835 2.2656507 46.92181
-2.5635793 4.6572423 46.801353
2.7974865 4.6430507 46.940765
18.813391 -1.3822809 47.134319
-1.2268763 -2.4634054 47.343235
8.7435389 -2.5443537 47.254234
0.47190025 -1.1639409 47.385948
-4.9339089 4.692636 47.371326
13.491365 -4.5421033 47.511112
-1.4011405 -2.4934549 47.577053
0.37282419 -1.3737171 47.443893
0.54435182 -1.2864183 47.457478
0.48053005 -1.0357237 47.510147
0.47260189 -0.97209644 47.538208
13.529581 -4.366446 47.659466
3.9191599 1.9854002 47.782112
3.8838551 2.1282127 47.778381
4.3047309 2.0002756 47.623756
1.496911 0.59198207 47.929913
1.3688405 0.79611325 47.925335
1.7721891 0.63999236 47.945389
2.1710668 0.64342213 47.954185
2.985894 0.64644539 47.847965
3.0623641 0.64963049 47.851089
3.2625725 0.66972458 47.887997
3.7526708 1.9731542 47.816795
3.983048 2.0070198 47.838837
4.1109886 2.0155332 47.815857
3.9051299 2.2659469 47.868336
-3.59478 -4.816844 48.110603
-3.6033132 -4.4927974 48.198921
-3.0578375 -4.4084883 48.197655
1.5392954 0.65240532 48.109596
-3.2286751 -4.4549942 48.222328
0.12327582 -1.0793593 48.279598
-15.256954 4.4985662 48.295517
0.063876063 -1.0436666 48.412704
2.276361 0.65307546 48.484184
12.33152 -2.4924464 48.772694
1.8752004 0.64385319 48.658005
2.2755666 0.64912194 48.788849
3.021903 0.64749128 48.651474
2.1181431 -2.5031796 48.931976
2.315897 -2.4994042 48.822926
2.0024185 0.63186824 48.843441
3.0680716 0.65543091 48.834526
-6.0238943 1.3269566 48.918945
-6.0565572 1.7287635 48.987583
-6.0164528 1.8208112 48.980003
-5.9854178 1.9782379 48.931427
-4.832036 3.1063781 48.998276
-5.1421194 3.8137925 48.879513
-5.0719013 4.3209791 48.869072
-5.1030502 4.4820905 48.939751
1.2517292 -2.5033269 49.091927
1.926752 -2.4998612 49.166462
2.2554822 -2.5096076 49.112511
-0.16460037 -0.99274874 49.14381
13.004631 0.60986626 49.000954
0.94278264 -2.5043051 49.298035
1.5600104 -2.5240211 49.249352
0.69142509 -2.5173283 49.450443
2.1825843 -2.5010552 49.57568
2.3616753 -2.5144429 49.462128
12.903103 0.63115585 49.450558
13.910314 0.6007098 49.572414
14.000923 0.63540149 49.530243
-15.261182 3.1957152 49.42239
0.67248368 -2.5258512 49.635544
0.83689117 -2.5411699 49.703686
1.7640526 -2.5612788 49.756233
1.9616175 -2.5180702 49.713009
9.4607697 -2.5472231 49.776985
12.904022 0.59117079 49.755978
11.686242 0.63149953 49.656727
12.806416 0.63615751 49.628422
13.950121 0.68232453 49.644142
-15.356726 3.4425187 49.646839
0.23370552 -2.5238104 49.916706
8.4480104 -2.5027423 49.967396
10.208953 -2.5361755 49.835613
10.994701 -2.4945445 49.807159
6.5645804 0.58968663 49.908539
14.030291 0.584737 49.888744
4.4794407 0.61757934 49.9837
10.853786 0.60157359 49.923573
1.7261672 -2.5257926 50.155045
6.1763563 -2.5109458 50.081646
6.2951574 -2.503917 50.187798
7.933527 -2.5172441 50.149906
8.1680202 -2.5390675 50.059566
7.1219916 0.59195721 50.033852
14.009962 0.57266402 50.119427
4.0546198 0.62497205 50.101219
5.5396171 0.61144292 50.155483
0.5618757 -2.5346138 50.260994
2.2831721 -2.5379558 50.392731
6.4481592 -2.5206423 50.390049
7.1518207 -2.5145531 50.289719
8.2295437 -2.5073547 50.236904
12.264787 -1.3816525 50.304096
-0.6169157 -1.0890173 50.265415
-0.52604711 -1.0060375 50.204124
12.28441 -1.100112 50.236591
12.921317 0.59294271 50.209972
2.2691278 -2.5458803 50.556671
6.8321929 -2.5178494 50.520184
9.4540806 -2.5437453 50.402657
-20.466084 -1.7002628 50.592728
-20.481289 -1.452822 50.593803
-20.495665 -1.2285161 50.58802
-20.488358 -0.51223958 50.481659
6.6870899 0.5987072 50.551052
4.1795263 0.61112225 50.525269
5.6475997 0.61062753 50.470676
12.838367 0.62220216 50.546299
1.4706531 -2.5386267 50.652
-0.78781956 -1.1814333 50.782978
-20.480898 -0.759772 50.603348
-5.9134417 -3.9257407 50.963764
0.50385863 -2.5417957 50.834229
1.7610172 -2.5400968 50.890354
2.3401942 -2.5358748 50.82235
-0.83352464 -1.0687804 50.900761
-0.75422925 -1.0342907 50.85014
-6.003417 -3.9087794 51.162426
0.56177241 -2.5538633 51.16761
0.66191477 -2.56111 51.129662
1.044894 -2.5543914 51.001984
1.4821771 -2.5486445 51.198841
1.8981429 -2.5406044 51.110012
-28.381863 -2.2781863 51.088947
-0.10138628 0.74799395 51.001877
10.575774 -3.334187 51.341709
-0.011809111 -2.5453629 51.209763
0.66494018 -2.564167 51.265724
2.0983796 -2.550998 51.32563
-28.3811 -1.9597279 51.255665
-28.39994 -1.2896028 51.258644
-28.384115 -0.62421453 51.270271
3.7279015 0.57658815 51.315022
5.425972 -4.2779627 51.50552
14.048932 -4.1354113 51.492485
13.582732 -3.9088423 51.504391
13.763165 -3.6042657 51.572762
13.887377 -3.6719022 51.466339
13.946396 -3.5575814 51.457058
10.591316 -3.0891178 51.432243
1.0802839 -2.575356 51.583652
-1.0570035 -1.092911 51.543449
13.142735 -4.1156187 51.601326
12.218868 -3.932445 51.771217
12.682276 -3.8540201 51.711708
-28.363867 -2.9592834 51.756721
-0.030399203 -2.5637088 51.65276
0.39415401 -2.5640721 51.625336
-1.1024158 -1.0700817 51.606232
3.9763203 -1.1915648 51.685818
-1.0894823 0.54413879 51.724911
-0.030301809 0.5138846 51.60865
-1.0726707 0.72723269 51.671471
-0.0027924776 0.60838938 51.641647
5.5522752 3.4556112 51.763065
5.516799 3.7156262 51.786026
5.4763408 4.0470095 51.795818
4.3239288 4.5778646 51.782333
-1.4526978 -1.3220708 51.964146
-2.090368 0.52793467 51.8283
-4.5033212 0.72563565 51.877983
-4.0182009 0.70945489 51.942039
-3.3868783 0.72532976 51.998386
-3.0133538 0.69681454 51.923801
-2.8732066 0.68253124 51.856033
-2.3405218 0.70748901 51.827091
1.0140121 0.73800683 51.839535
5.434772 3.5995378 51.883842
6.0699363 3.4838061 51.827709
5.4311123 3.7490773 51.891998
5.99159 3.7979383 51.842251
6.0829067 3.6617093 51.846485
5.4331164 3.9014335 51.909729
6.0048232 3.9741979 51.862148
5.2230015 4.1172132 51.953239
5.415318 4.032733 51.894333
5.2555923 4.385551 51.883919
5.4529095 4.2662477 51.85323
-1.2853649 -1.3565745 52.063911
-1.1491921 -1.3059605 52.033943
3.3247929 -1.2930377 52.142654
-1.2666438 -1.0882452 52.052151
-4.0514965 0.58108819 52.080193
0.70838112 0.71818972 52.194069
-6.3812361 -4.1104212 52.201569
3.4215195 -1.4850256 52.329884
3.0085707 -1.3581498 52.374146
3.4164097 -1.3996043 52.316692
-4.6547518 0.74064219 52.284706
-2.5824683 0.72491705 52.298244
-2.1717482 0.71106124 52.269638
3.2385237 -1.4686233 52.533924
-1.7212474 -1.3088143 52.541077
-1.3546119 -1.2529562 52.587368
2.9884198 -1.2427956 52.421898
3.1454892 -1.325665 52.522762
-1.468349 -1.0282015 52.594421
-2.0422564 0.73596507 52.451756
-1.1836777 0.72966993 52.569126
0.65347409 0.72504801 52.592922
-1.6105809 -1.40259 52.631557
-1.5070702 -1.330573 52.633778
-1.553439 -1.0849452 52.68441
-25.574333 -2.1227636 52.944485
10.419622 -2.1493483 52.914135
2.5764446 -1.2505057 52.853401
2.6508889 -1.361393 52.909454
-4.5435114 0.71281826 52.895596
-0.67548501 0.69222713 52.982815
6.9170284 -1.8413076 53.193008
2.7042441 -1.4892232 53.058136
-1.1437355 0.55129772 53.178978
-2.3083444 0.68979776 53.116714
-2.0607243 0.71197581 53.137615
-1.5462605 0.71260166 53.124683
-1.2431427 0.63305891 53.180061
7.0707459 -2.1088197 53.271626
6.8851824 -1.616117 53.222271
8.8669376 -1.7115078 53.399639
-1.9197431 -1.4492927 53.39196
2.3320334 -1.4150697 53.370007
8.2173595 -1.4900026 53.305359
-1.8570452 -1.3157822 53.35931
2.2758672 -1.3348061 53.370071
-1.7878861 -1.1637983 53.3666
-3.4456515 0.54922891 53.376564
-3.3729041 0.51815081 53.366352
-2.2916875 0.50012279 53.241272
3.2582448 0.56016111 53.37635
-3.7325273 0.67752433 53.242031
-2.955605 0.65344548 53.293797
-2.3845661 0.6397084 53.255409
-1.8556623 0.68491983 53.308578
-0.57903075 0.70241618 53.207016
1.1295033 -2.6007447 53.444336
10.423218 -2.4276369 53.442345
9.4329567 -2.27369 53.584225
10.426531 -2.2121921 53.485931
10.694781 -2.381423 53.576904
8.723918 -1.671422 53.518627
8.8854609 -1.668264 53.425156
10.349204 -1.7033262 53.48402
-12.230856 -1.5265173 53.529377
-1.8074516 -1.431545 53.416477
8.7738781 -1.5986214 53.471367
-12.280411 -1.3967302 53.528
-1.8870614 -1.1530511 53.421505
-18.171415 -0.50676286 53.573013
-18.204571 -0.059019566 53.598564
-4.4889884 0.7043668 53.446899
-4.2337518 0.71101379 53.497486
-3.9131193 0.69336152 53.442738
-0.4792757 0.70331848 53.585934
9.2962532 -2.531009 53.66291
7.1553726 -2.3330288 53.790039
7.7500601 -2.2968392 53.725128
9.9603367 -2.3263123 53.684029
10.139575 -2.3792913 53.7001
10.281775 -2.237078 53.734905
10.577857 -2.2364202 53.634083
10.859961 -2.3075314 53.631371
-17.969784 -1.6392815 53.744339
2.0924413 -1.4385132 53.645027
-18.024311 -0.74471337 53.658722
-18.187872 -0.28938377 53.693146
11.903542 -0.021055222 53.71822
-0.52068144 0.5078603 53.735931
-4.102839 0.69109315 53.713402
-3.1425648 0.6876961 53.794147
-1.6644399 0.68773937 53.750195
-0.59298682 0.70389926 53.737854
14.069328 1.2403392 53.662128
0.42050028 -2.608849 53.945412
1.1729927 -2.5708389 53.818924
1.4808517 -2.5936887 53.873264
7.2054119 -2.473495 53.876553
6.8924255 -2.2912674 53.843018
7.9064722 -2.258985 53.896503
8.1809378 -2.3206897 53.865738
-17.9839 -2.0946999 53.851151
7.1463265 -2.1801369 53.832565
-17.967632 -1.8549793 53.856213
-2.2970285 -1.4697905 53.930031
-1.9314824 -1.4186039 53.895382
-2.235507 -1.2998997 53.862988
-2.050818 -1.2865424 53.872086
-17.955006 -1.1936201 53.863152
-2.0657508 -1.0844022 53.932133
-1.9691344 -1.1248474 53.883438
-19.183731 -0.71315002 53.957012
-19.220652 -0.48041117 53.963329
-19.204344 -0.2647987 53.965256
-19.234655 -0.037287951 53.980915
-19.236866 0.4101069 53.9856
3.8085766 0.55162352 53.828747
-4.3136425 0.69184405 53.874287
-4.081749 0.70166123 53.834652
-3.0500221 0.68264997 53.925034
-2.8005018 0.67893362 53.879009
-0.67162156 0.68285489 53.997643
-0.46418703 0.69653332 53.896591
-0.31294668 0.67408848 53.988159
14.086304 1.1156843 53.991287
14.058141 1.285394 53.982258
14.014887 1.4386021 53.804726
1.4977088 -2.6053257 54.122726
-21.055014 -2.4231219 54.116554
-20.092369 -2.3309956 54.046181
6.8003683 -2.2829771 54.020477
13.880121 -2.279613 54.149914
-20.031588 -2.1111863 54.051048
6.9115515 -2.0956101 54.096085
-19.981754 -1.8714745 54.061172
6.5312386 -1.8874195 54.000839
-19.230135 -0.20646226 54.190292
-21.18005 -0.14482546 54.117126
-20.19557 0.12856126 54.058964
-19.209892 0.17943954 54.196423
-20.224468 0.3585192 54.067097
3.2508154 0.51964378 54.183975
-4.1621904 0.66687596 54.115585
-3.8645372 0.67390144 54.153103
-3.716115 0.68053043 54.114143
-3.2142396 0.67527509 54.03981
-1.6658363 0.68160486 54.031025
-0.49899837 0.68951654 54.101822
14.031567 1.1157469 54.058067
1.3819728 -2.6220069 54.318054
13.696409 -2.2170923 54.297955
13.564289 -1.8737651 54.335155
13.583158 -1.7107594 54.327751
-2.4107499 -1.4477795 54.236927
-2.2505562 -1.400122 54.313145
-2.246686 -1.2985966 54.274967
-2.1504714 -1.3478596 54.29718
-19.212851 -0.45959473 54.310928
-23.949209 -0.37065363 54.211304
-21.234497 -0.12269855 54.356815
-21.236008 0.021303535 54.31155
3.4315114 0.54656255 54.271271
3.7915208 0.54659188 54.387817
-4.0605068 0.69145459 54.313034
-3.9168153 0.68263823 54.242126
-0.48946354 0.6866954 54.300625
1.9405732 -2.6296129 54.594231
13.233681 -2.5146103 54.454254
13.585731 -2.4909353 54.414131
-18.022013 -2.082963 54.532013
13.616103 -2.1798108 54.448006
-18.029749 -1.8366854 54.540863
-15.568058 -1.9308006 54.590199
13.152454 -1.9787526 54.493477
-18.05348 -1.617136 54.546413
13.177428 -1.7140999 54.523422
13.179789 -1.5628285 54.527565
-18.08153 -1.3743429 54.559868
13.17337 -1.3770933 54.578823
-18.104868 -1.1538306 54.565338
11.012225 -1.144158 54.474792
-18.122229 -0.9131102 54.576317
13.186715 -0.91545367 54.548767
10.75271 -0.5161646 54.592751
11.105309 -0.44928384 54.420849
13.159389 -0.45681369 54.583267
13.390887 -0.3660652 54.482399
10.850365 -0.044694245 54.571968
13.165876 -0.19005692 54.564484
13.357458 -0.057925344 54.460556
13.548567 -0.020136952 54.44825
-21.178648 0.073742032 54.464195
13.183265 0.0025496483 54.560745
-21.18623 0.30718124 54.475002
-4.0460615 0.66637903 54.491611
-2.829983 0.67652076 54.530632
-2.2018843 0.68068528 54.535812
-2.0937521 0.69218588 54.551888
-1.5166612 0.67729485 54.582939
-17.785059 -2.5288355 54.695515
-17.793329 -2.2979865 54.714386
12.628405 -2.2628899 54.733608
-19.12689 -0.78921366 54.730453
-21.09873 0.5196352 54.722893
-4.0532236 0.63732994 54.737732
-3.9308169 0.68293977 54.655987
-3.239208 0.66079199 54.713131
-2.9265747 0.66941965 54.760593
-2.1510737 0.69427657 54.640739
-0.57347035 0.67552233 54.613197
1.0223224 0.66921794 54.776573
0.76967818 -2.6281843 54.829205
0.82816881 -2.6387205 54.908787
2.0040772 -2.6266975 54.976021
-21.113703 -2.4255767 54.805023
-20.022261 -2.2281032 54.941757
-19.018511 -2.152257 54.814838
-2.6558065 -1.4895577 54.993942
1.6162665 -1.4095764 54.862759
-2.4609644 -1.3294933 54.987545
1.5925223 -1.3268282 54.848949
-18.117226 -0.69462538 54.817661
-23.943977 -0.40846157 54.971001
12.614357 -0.43586051 54.829296
12.621738 -0.29477406 54.84211
-23.97364 -0.1352787 54.834175
12.675925 -0.0085793734 54.808392
-23.995232 0.12702167 54.817478
-20.138752 0.11466098 54.848129
0.95236206 0.39488506 54.850368
0.93427563 0.49036694 54.826374
1.016027 0.49941212 54.829086
-4.6388035 0.66699564 54.832634
-4.2256598 0.67574298 54.971737
-4.081872 0.67091501 54.877045
-3.1016893 0.66591001 54.831059
-2.1143751 0.66402507 54.907135
1.0019407 0.61555266 54.9715
-20.790091 -2.6305304 55.074211
1.033227 -2.6475482 55.139614
1.3735402 -2.6471038 55.18861
12.340298 -2.6047497 55.124767
12.519447 -2.6663206 55.000412
-19.884281 -2.4719207 55.071404
-18.727184 -2.3571959 55.121338
-2.7131493 -1.5696344 55.00906
-2.4565315 -1.4370302 55.027081
-23.937895 -0.66775775 55.112053
12.280466 -0.59738499 55.180405
3.7108512 -0.34913725 55.04808
-21.133059 -0.14266717 55.074928
12.126594 0.19594383 55.193111
12.233158 0.18842912 55.196041
14.43408 0.1986407 55.000439
-4.645647 0.65583479 55.033215
-3.9366262 0.66031659 55.148964
-1.664801 0.66889799 55.195465
-0.6635716 0.67076766 55.042645
12.236468 0.8504765 55.148602
1.9065424 -2.6385536 55.284954
2.053431 -2.6253967 55.374023
14.454668 -2.6051502 55.36898
-20.784712 -2.5085282 55.380199
-18.691298 -2.5851123 55.32637
-20.8223 -2.2550313 55.37883
-18.795387 -1.9076047 55.247784
-17.957415 -1.41151 55.292351
-18.050423 -1.1887487 55.318855
14.578232 -1.169661 55.317215
-21.181976 -0.91164362 55.236549
-18.067963 -0.94377655 55.33078
12.257196 -0.89810014 55.2094
14.559521 -0.89732099 55.340862
12.164316 -0.72577822 55.238358
12.119034 -0.46736693 55.223385
12.248245 -0.49358764 55.221252
12.137798 -0.040382981 55.251057
12.134604 0.067208886 55.242584
12.070543 0.32178652 55.220158
14.531408 0.25825715 55.314682
-5.2953644 0.54957885 55.384602
0.99255443 0.41880274 55.328815
1.0307443 0.45935333 55.314625
3.5235236 0.51041967 55.294407
-5.5411639 0.68073273 55.318832
-5.3602238 0.61681783 55.321415
-3.3543212 0.67049861 55.223076
-0.69117522 0.66215104 55.288673
10.663832 0.73509288 55.329494
11.315248 0.79079258 55.272614
10.73479 0.88429093 55.376217
10.929474 0.82301998 55.366997
11.312299 0.88473797 55.254692
12.189333 0.97221482 55.211815
1.8622251 -2.6599801 55.570068
-18.720409 -2.1489148 55.570686
-18.875469 -1.7021258 55.598839
-2.9327774 -1.5271382 55.588089
1.5622568 -1.50325 55.519985
-12.97154 -1.2046691 55.447838
-23.838091 -1.1990225 55.56749
-13.069401 -0.93027025 55.59444
-0.30870599 0.45491606 55.455536
3.8319364 0.48603213 55.595879
-5.2634354 0.65772462 55.473682
-0.81076396 0.65920073 55.421394
-0.72570753 0.65882421 55.563824
-23.597483 -1.9800264 55.790363
-23.664892 -1.711298 55.631836
-23.733009 -1.4670343 55.603722
-18.929892 -1.465989 55.612785
-21.052778 -1.2905415 55.628834
-18.992107 -1.2121136 55.760654
-2.7534373 -1.3771542 55.664787
-21.103298 -1.0554787 55.62793
-19.053408 -1.0155058 55.636261
-19.045835 -0.97202063 55.658825
-18.964891 0.39835227 55.792412
-3.9111125 0.46687961 55.734177
2.9002047 0.50863916 55.679596
3.1563027 0.50841343 55.682648
3.4856853 0.51332855 55.655685
-23.511028 -2.4916835 55.816677
-23.536631 -2.2208488 55.814964
14.572055 -1.9732869 55.898216
-18.881973 -1.430681 55.858475
14.568566 -1.2425078 55.979198
14.521318 -1.1396744 55.8717
14.560911 -0.87950134 55.843361
14.5529 -0.62190652 55.835327
14.55571 0.4085691 55.801422
-5.852694 0.64101279 55.815037
-4.0280933 0.64056742 55.856323
-0.83311069 0.64340067 55.897549
-0.78178859 0.65099072 55.803566
5.2292137 -3.8526349 56.056293
14.567183 -2.508316 56.01487
-20.9408 -1.5061262 56.019966
1.3147948 -1.4987417 56.192574
-20.928951 -1.2898341 56.02021
-20.991861 -1.0543298 56.021889
-17.658621 -1.1491787 56.075165
1.2677367 -1.1603961 56.182068
-17.727699 -0.90022624 56.1059
14.58698 -0.7243613 56.084541
-1.0141929 0.38888526 56.180843
-1.0293213 0.41423318 56.180481
-0.98102772 0.48895478 56.160976
14.542109 0.53871071 56.150902
-3.8814306 0.65179288 56.015244
-2.0973182 0.65189219 56.031628
-0.92234939 0.65485132 56.081673
-0.60588086 0.64251643 56.171242
-20.438917 -2.6144691 56.22649
-0.83022666 -2.6562808 56.2794
-0.46938208 -2.6762419 56.3922
-20.514862 -2.0898252 56.237759
-20.600544 -1.5702219 56.248386
1.334939 -1.4665555 56.227139
1.4284711 -1.5253758 56.254608
-20.542717 -1.3248181 56.385811
1.3430643 -1.3500471 56.286556
-20.575899 -1.0549121 56.395519
-23.631508 -0.96815234 56.212288
-18.716663 -0.97983384 56.296394
-18.924587 -0.75931996 56.341908
-23.983797 -0.19337916 56.381176
-23.874058 0.31753409 56.297112
-5.278965 0.49199796 56.355202
-3.1117432 0.53910244 56.308502
-2.0519359 0.46662569 56.281345
-5.9282074 0.64187044 56.328842
-3.0938225 0.63740933 56.3437
-2.8151112 0.62762558 56.245193
-2.2936482 0.63650143 56.335815
-2.1085744 0.62041366 56.315411
-1.5025069 0.63703489 56.346386
-20.390097 -2.3670039 56.492462
-20.512564 -1.848911 56.502644
-23.469183 -1.7143581 56.531517
-23.451653 -1.4753265 56.539543
-3.0622718 -1.4471835 56.479877
-2.9913981 -1.3327384 56.437202
-20.956358 -0.84392339 56.48032
-3.1049604 0.4032768 56.401581
12.570719 0.4476552 56.518501
-3.7437921 0.63454109 56.499519
-3.4910049 0.63409996 56.531113
-3.2799287 0.63271189 56.438599
-0.58441263 -2.6673095 56.6703
14.636049 -2.5140486 56.733002
-23.47888 -2.2180805 56.65139
-18.384464 -2.1530371 56.76535
-23.786041 -1.9407687 56.785885
-23.800583 -1.4400562 56.789921
-23.488239 -1.217895 56.667652
1.1568199 0.45842457 56.785988
-23.785984 -2.687789 56.906963
-18.311218 -2.6095614 56.849697
-1.0012949 -2.6775665 56.889668
-0.37347507 -2.6657155 56.903198
-19.294804 -2.5207655 56.934036
-18.322588 -2.3765759 56.869011
14.664513 -2.3662829 56.812744
-23.830551 -2.1813815 56.90099
-23.781233 -1.9919485 56.806507
-19.400805 -1.8544304 56.968555
-18.438354 -1.9111762 56.906868
14.660627 -1.8754343 56.854706
-23.868652 -1.6808915 56.897099
-18.414553 -1.6885428 56.899235
-18.463005 -1.445358 56.918934
-12.176189 -1.5102429 56.974731
-18.498411 -1.2239692 56.92804
-23.791386 -1.1808391 56.801285
-20.578123 -1.0651935 56.826668
1.1689324 -1.1456664 56.895115
-23.751734 -0.98453629 56.974625
-18.597864 -0.98175359 56.962185
14.652996 -0.99623102 56.868336
-23.783396 -0.72219038 56.971874
-18.946012 -0.75251687 56.939407
-19.880754 0.38839746 56.959137
1.1347979 0.37537581 56.834354
1.1184974 0.44578099 56.839287
3.1059442 0.48670983 56.900501
-3.2822464 0.64368266 56.919476
-2.2142534 0.6343469 56.992447
-19.326664 -2.3026419 57.064415
-19.326927 -2.0887785 57.064293
-12.17565 -2.1678114 57.077606
14.688827 -2.0960002 57.103882
-12.219553 -1.8734106 57.026085
-12.198816 -1.6958642 57.030041
-3.4064693 -1.4652281 57.126266
-3.0899112 -1.4725084 57.043243
-3.2864742 -1.3395731 57.066868
-3.1545951 -1.347207 57.015587
14.640689 -0.89262652 57.027264
-19.943869 -0.75034285 57.048897
14.639523 -0.61046672 57.199764
14.633989 -0.38606226 57.19828
-18.820538 0.43699062 57.181911
-1.2317653 -2.6780343 57.327614
14.670395 -1.7398303 57.217148
-19.794067 -1.423597 57.363708
-3.4496062 -1.4769657 57.384991
-3.1172767 -1.5169797 57.342789
-3.4224308 -1.3356177 57.367172
-3.2700782 -1.359848 57.345966
-20.80069 -0.85703897 57.383812
12.587652 0.43092561 57.275597
0.3839854 0.65110183 57.378014
0.73598766 0.62677222 57.264912
-1.6235515 -2.6674376 57.428642
-1.5923755 -2.6783743 57.560539
-12.958807 -2.519402 57.400215
-12.913132 -2.3785434 57.467804
-23.822155 -1.4507346 57.562107
-3.5136192 -1.4728779 57.48954
-3.3186138 -1.4810896 57.410385
14.712135 -1.5935662 57.543682
-12.788247 -1.2874069 57.493355
-3.4479866 -1.3500084 57.468487
-20.799667 -1.0723151 57.493301
-23.805061 -0.95645034 57.451199
-23.829712 -0.70213389 57.58017
-20.781843 -0.62563455 57.501465
-20.875984 -0.54279721 57.513657
0.59623724 0.39253271 57.43449
0.62382573 0.47966456 57.419601
2.9828029 0.47469419 57.445164
3.5054824 0.48285961 57.456367
-3.9125204 0.6134814 57.41256
1.0764774 0.65273833 57.414627
-23.837543 -2.6870685 57.795212
-1.4382896 -2.6918504 57.711262
0.0077788681 -2.6835506 57.783501
-23.845829 -2.4481671 57.793564
-23.859314 -2.1850529 57.79771
-23.81543 -1.9471507 57.683537
-23.819691 -1.6875455 57.690308
-23.840542 -1.1964049 57.692764
-20.866348 -1.0746902 57.627472
-19.865919 0.35649705 57.63599
-2.4544249 0.34009159 57.643108
-2.3611796 0.37851536 57.608669
13.395641 0.38666654 57.676529
-2.4461484 0.50409156 57.675579
-2.3487678 0.46943402 57.618561
-3.6568346 0.6221596 57.684929
-0.86272383 -2.6667967 57.931747
-20.846207 -1.6100382 57.877457
-23.858372 -0.47227669 57.959457
-19.828875 -0.56474078 57.844574
-4.4100604 0.44268477 57.875477
4.0507107 0.45981157 57.881397
12.50924 0.40417302 57.95895
-4.3768845 0.60307693 57.993668
-3.4700708 0.60319698 57.949966
-3.1745799 0.61391425 57.877125
-20.826019 -2.6311727 58.138973
-2.009377 -2.6986322 58.106049
-0.80843395 -2.6898031 58.108334
-0.33925581 -2.6889269 58.069996
-19.78244 -2.4250419 58.173344
-19.782427 -2.2002439 58.171555
-18.670198 -2.005177 58.018143
-19.788378 -1.9530663 58.177689
-19.769062 -1.7314041 58.171829
-19.766006 -1.48781 58.176052
-3.7416537 -1.453952 58.133266
-3.591573 -1.4824558 58.092155
-20.852711 -1.361184 58.014507
-19.773649 -1.2674803 58.175838
-3.6753545 -1.3450522 58.067513
-3.5191236 -1.3496606 58.0219
-19.818563 -1.0272108 58.190109
-20.84507 -0.81730294 58.100296
-19.775242 -0.80686831 58.182556
-18.82988 0.19551647 58.123913
12.543077 0.41920424 58.108074
-0.57295811 0.60721213 58.115398
-1.8967378 -2.6739283 58.233517
-1.6981943 -2.7074904 58.399601
-0.93088907 -2.7085202 58.268112
-19.881056 0.36370325 58.348232
-1.2990068 -2.6989546 58.505856
0.9538337 -1.1857564 58.594994
-20.920219 -0.55792826 58.570854
3.5455689 0.47440457 58.488232
-3.912674 -1.4571158 58.710529
-3.8818326 -1.3748484 58.733608
0.95135486 -1.3198365 58.644043
-1.3961091 0.5891633 58.685532
14.240644 -0.029936314 58.977211
13.140345 0.36000067 58.811657
14.24495 0.37496829 58.838425
-2.4937272 0.57661283 58.836823
4.3065348 0.45556247 58.945457
4.4215531 0.4245398 58.879204
-4.1593666 0.60363007 58.96944
-4.5724859 0.58126307 59.039577
-3.950737 0.59602702 59.008831
-2.2418957 0.57388186 59.075092
-1.8352618 0.58078885 59.105007
-1.785023 0.59140009 59.026909
-0.73468304 0.57175636 59.07592
3.7797656 0.43355668 59.16357
4.3011837 -4.0998445 59.307037
3.9605112 -3.8738945 59.367867
-4.1540508 -1.4618335 59.25169
-24.755341 0.23134959 59.279251
-20.793613 0.38353431 59.34486
-4.2792578 0.59274328 59.347122
-4.1013856 0.58646953 59.223473
-3.3083725 0.57041371 59.384468
-3.1101346 0.57803476 59.297493
-2.9496441 0.59325814 59.372021
-1.9962854 0.56486392 59.209568
-1.6655903 0.57161319 59.216171
-0.79904854 0.57820266 59.279617
-24.533487 -3.2184584 59.568192
-24.586185 -2.4032786 59.442932
-24.560827 -1.5548335 59.589024
0.73064947 -1.2300296 59.488678
-4.3499913 0.57793152 59.5625
-4.141654 0.56212115 59.582909
-3.4428093 0.56503153 59.517784
-2.9813442 0.57589221 59.515079
-2.6644611 0.56449544 59.533726
-0.87460804 0.59277719 59.516418
4.6823969 0.42323339 59.414543
-23.625393 -2.0225894 59.688759
-4.3154521 -1.4551864 59.603043
-24.740776 -0.055055857 59.67551
-4.5336828 0.56076539 59.719814
-3.9403691 0.55970442 59.616325
-0.62758219 0.57088757 59.608971
-23.600389 -2.5018997 59.923153
-20.711979 -2.1586535 59.802727
-20.822449 -1.9023962 59.830154
-23.614603 -1.7755435 59.935776
-20.783415 -1.612973 59.833584
-23.611593 -1.3051195 59.943687
-20.748014 -1.3558546 59.970058
-20.751898 -1.0719743 59.982574
-24.697071 0.22887695 59.893543
-24.736813 0.462834 59.965054
-4.3301058 0.56644124 59.859512
-0.84184027 0.5905242 59.837658
0.28601849 0.56673801 59.897266
4.4974852 0.40777749 59.913792
2.4805984 -4.3463459 60.175148
-20.652792 -2.6722569 60.100159
-20.687138 -2.4345798 60.002991
-23.575047 -2.2498627 60.170952
-20.685654 -2.2068961 60.000965
-20.711473 -1.9574964 60.011581
-20.691643 -1.7328682 60.005562
-23.594732 -1.5515912 60.057629
-20.688875 -1.4859581 60.009979
-4.64884 -1.4814308 60.12381
-4.5961714 -1.4702352 60.104733
-20.694918 -1.2625593 60.009552
-23.59763 -1.0822228 60.067989
-20.698942 -1.0190911 60.015408
-20.708715 -0.7953701 60.019199
-24.720005 -0.33118737 60.091827
-2.0333364 0.58680844 60.08374
-0.90525031 0.58096778 60.011837
0.29118803 0.55992448 60.127254
4.079803 0.41638809 60.0345
-4.7122431 -1.4972353 60.243988
-23.689186 -0.6109212 60.303268
-24.841053 -0.44954973 60.200813
-19.674215 -0.55998635 60.252052
-23.735537 0.33769393 60.31881
0.85865974 0.34883094 60.38073
0.27146691 0.54362869 60.386246
0.81372046 0.53978539 60.374878
1.4173342 0.49753845 60.381237
-20.604116 -2.0615995 60.570793
-24.634714 -0.86552954 60.485283
-23.614658 -0.84355676 60.427261
-22.70764 -0.63248384 60.534416
0.79547024 0.39433074 60.449417
0.8285445 0.33741614 60.437302
-3.9244533 0.56310642 60.473106
0.43589115 0.53421915 60.589165
0.86636627 0.47209555 60.454124
3.7164812 0.41994572 60.494022
-20.539118 -3.0299253 60.66201
4.1626072 -2.7197437 60.660919
-20.56945 -2.5540919 60.680126
-20.589655 -2.3215704 60.685398
-19.561745 -2.3011615 60.712524
-12.23807 -2.314281 60.697166
-12.184607 -2.1560955 60.703926
-20.514469 -1.8310069 60.669704
-12.219793 -1.865855 60.703972
-20.539539 -1.5789733 60.683399
-4.9286928 -1.4990461 60.692116
-24.694149 -1.3652961 60.682228
-19.552019 -1.2760853 60.718582
-24.698414 -1.0827243 60.687542
-20.552347 -1.100476 60.692936
-19.546267 -1.0121855 60.722397
-24.66946 -0.86088395 60.735935
-22.669312 -0.87175107 60.642914
-20.56949 -0.8711282 60.700851
-24.707182 -0.69090575 60.634254
-1.5221856 0.34605324 60.604275
-4.0202966 0.51041162 60.781158
-2.5182881 0.55336237 60.776855
-1.4758874 0.55025476 60.741978
-1.3000166 0.54561877 60.706909
-0.87479353 0.53990948 60.686661
-0.5016861 0.54185927 60.786461
-0.034790248 0.55072749 60.642555
0.74035639 -4.3990283 60.854111
-24.747927 -1.3699086 60.837994
-20.780542 -1.355032 60.879177
-24.738224 -1.1461909 60.852802
-20.794455 -1.0865031 60.974392
-20.770557 -0.81896615 60.976078
-23.78265 -0.48351115 60.80418
-24.684525 -0.06989491 60.92366
-5.2125306 0.32469314 60.988243
-3.6679583 0.541399 60.922092
-3.4986038 0.53088772 60.917145
-2.9281645 0.52981234 60.802261
-2.5459452 0.56927145 60.851101
-2.0639219 0.52796197 60.918736
-1.4663918 0.54417145 60.849419
4.7065201 -2.7514315 61.017483
-13.004543 -2.4874229 61.046482
-12.905702 -2.4453993 61.008205
-13.01598 -2.3772991 61.046474
-20.813663 -1.3831979 61.115025
-19.666811 -0.7690016 61.057213
-24.669579 -0.33097249 61.189228
-20.72053 0.30204713 61.004456
1.4936535 0.33721659 61.126152
-3.6451435 0.53474498 61.077194
-2.8851693 0.53414142 61.011749
0.38778967 0.5441947 61.093842
-6.4198742 -2.7604401 61.383125
-24.788475 -2.4955301 61.327404
-5.133935 -1.5084002 61.337997
-24.800587 -1.3043764 61.362663
-24.78993 -0.99755001 61.377747
-23.748676 -0.81081468 61.382973
-24.873247 0.18744409 61.272266
3.5856423 0.38645697 61.203262
4.7036624 0.39900053 61.397305
-5.211369 0.55450737 61.249065
-2.5764077 0.53336501 61.356857
-24.879749 -1.2836121 61.480675
-24.908001 -0.7030865 61.4963
-24.66205 -0.59985316 61.555035
-24.810617 -0.12145269 61.406502
-4.7653589 0.53972208 61.525848
-2.5869865 0.55259526 61.46759
-0.44186521 0.54170358 61.518173
-6.6943064 -2.7580967 61.687981
-6.2591553 -2.7804008 61.726364
-5.8520432 -2.7741313 61.706898
2.3104708 -2.7644284 61.764675
4.3011532 -2.7479153 61.65926
4.7795482 -2.7355869 61.77282
-24.661087 -1.6459781 61.737144
-23.778368 -1.0850787 61.615295
-24.862677 -0.99027765 61.787827
-24.671068 -0.84952772 61.675735
-23.778936 -0.83934325 61.621944
-24.723198 -0.64418888 61.663528
-20.621956 0.35201061 61.76939
3.6738677 0.38260341 61.641365
-4.1136451 0.54423231 61.723755
-1.717339 0.54250789 61.713154
0.94526494 0.50741684 61.735146
1.4567332 0.52936757 61.690777
2.1169968 -2.7619319 61.9314
4.4163313 -2.7450147 61.930943
4.6592259 -2.7667861 61.93
-12.564913 -2.4672539 61.921566
-12.543894 -2.31675 61.948544
-24.646311 -2.1534905 61.856987
-24.629324 -1.8890176 61.99313
-12.516468 -1.9703964 61.978222
-24.632076 -1.1201519 61.926815
-24.726147 -0.38943076 61.94532
-20.526133 0.21257806 61.986866
-0.32782829 0.32078388 61.951309
-3.2699394 0.5218581 61.878487
-2.1587858 0.51922333 61.946243
-1.2086319 0.51755333 61.971947
-0.35331678 0.54078722 61.957161
0.64570379 0.55748403 61.965042
1.7396466 0.54190457 61.93325
-24.61685 -2.6642971 62.104256
-7.1097727 -2.7957406 62.152748
-6.6676354 -2.771698 62.081596
-6.0296383 -2.7897716 62.106174
-2.5311642 -2.781445 62.160713
3.4011579 -2.757926 62.074043
3.7314939 -2.7708151 62.002678
4.1248341 -2.7514024 62.148441
-12.539274 -2.119523 62.002037
-12.475838 -1.8203368 62.035294
-13.160854 -1.4924337 62.188004
-24.656553 -1.3648463 62.045055
-23.753664 -1.0653625 62.144272
-3.7726464 0.32110703 62.1917
-2.4547093 0.30337346 62.090446
-2.982914 0.53357053 62.04784
-1.6485267 0.46532178 62.021889
-1.3414316 0.5255968 62.008202
-1.1810198 0.46525109 62.046356
-0.24652112 0.52421057 62.049751
0.74473518 0.55521071 62.059792
-20.548265 -2.7979379 62.332611
-6.8740139 -2.7675996 62.309372
-1.7272046 -2.783694 62.278339
4.1831799 -2.7841229 62.254852
-12.594887 -2.5818019 62.263733
-24.651627 -2.3984132 62.2341
-13.195312 -1.6575433 62.237782
0.71652538 -1.5004598 62.360596
-13.12381 -1.3369068 62.29435
-3.2797623 0.50437033 62.386818
-0.2633909 0.53465509 62.269676
1.2778144 0.5195291 62.256016
1.5598154 0.52614141 62.376511
-12.517229 -2.7693062 62.406166
-7.1001883 -2.7790155 62.595982
-5.9791069 -2.7937448 62.536625
-2.6903744 -2.768538 62.496555
2.0207562 -2.7826836 62.568653
2.3730712 -2.7801728 62.569305
2.8882308 -2.7743335 62.52327
3.6763632 -2.7723012 62.567135
-24.682953 -2.0057392 62.593285
-23.76906 -0.62213075 62.449703
-23.601501 0.30769813 62.583355
-22.557032 0.38341808 62.579811
0.17561412 0.31813699 62.537819
0.20621735 0.39772689 62.517288
-3.7232819 0.50118542 62.443596
-0.285613 0.51373231 62.544754
1.2297804 0.50385916 62.579906
1.6651886 0.50242162 62.445324
-2.5883989 -2.8021557 62.658531
-2.0956578 -2.8031847 62.692772
-6.6467342 -2.7917771 62.747154
-5.6923752 -2.7859945 62.61158
3.9142025 -2.7765031 62.611702
4.5817251 -2.7811871 62.674118
-13.210789 -2.4511433 62.72271
-13.188345 -2.5534911 62.665649
-24.675518 -2.294363 62.737701
-24.705215 -1.6918809 62.604645
-13.087816 -1.4978361 62.71347
-24.707233 -1.0969877 62.622734
-4.8372002 0.50884116 62.609196
-7.1516042 -2.8087072 62.997673
-5.7739582 -2.8054688 62.926086
-1.9677318 -2.8018036 62.818363
-24.68119 -2.6173687 62.87244
-6.6918364 -2.799644 62.964733
-5.7468295 -2.7999573 62.950779
-1.7058085 -2.7985516 62.985485
1.4291692 -2.7900851 62.997063
3.8711114 -2.7866673 62.938881
4.6908255 -2.7618213 62.833099
-12.966251 -2.4437141 62.893803
-24.685614 -1.4159374 62.909027
-5.4226584 -1.5398474 62.915039
-23.65707 -0.85931802 62.913441
4.3656073 0.36112571 62.889168
4.6040096 0.37871993 62.837402
-7.2258449 0.48004401 62.965069
-5.5857224 0.49627328 62.876038
-5.2023649 0.51500696 62.882919
-0.11747533 0.50103366 62.804276
-5.6634712 -2.8004429 63.021702
-1.0525489 -2.8066459 63.09613
2.4835937 -2.8042068 63.176498
1.422096 -2.7964864 63.182743
3.4556875 -2.7691348 63.091881
3.8789289 -2.7751374 63.020653
4.403213 -2.7749994 63.120697
-13.096333 -2.3557258 63.069183
-7.1091127 0.27454859 63.19614
3.6881537 -2.8013632 63.212814
-6.2280192 -2.7884574 63.222538
2.2578745 -2.789556 63.235577
2.5456853 -2.7800369 63.222584
3.3184085 -2.7796299 63.300621
4.002162 -2.7830725 63.353001
-13.014147 -2.5230799 63.342312
-12.960268 -2.4156067 63.393497
-12.997919 -2.3130603 63.398598
-23.628105 -1.1082737 63.257339
-7.0793715 0.36202013 63.211731
-5.5020103 0.49468315 63.39352
-2.6140075 0.49504054 63.384079
0.07795155 0.50275576 63.361
-3.2599516 -2.8088226 63.535675
-1.8011466 -2.8201122 63.511436
-0.74159265 -2.8139303 63.483467
3.1286116 -2.8005838 63.50098
-2.9019403 -2.7976048 63.573704
2.7814467 -2.7996531 63.577133
-5.3180685 -1.637341 63.567574
4.3970861 0.35776734 63.461212
-5.3637924 0.49926901 63.412476
-4.1956358 0.47686219 63.572365
-2.8230116 0.49488443 63.530018
-2.7247276 0.49590427 63.532951
-6.1967802 -2.812706 63.614651
-1.7340219 -2.8167524 63.768566
2.6957526 -2.8162904 63.680431
2.9294205 -2.8067214 63.700699
4.0917149 -2.7891183 63.631657
