# .PCD v0.7 - Point Cloud Data file format
VERSION 0.7
FIELDS x y z intensity
SIZE 4 4 4 4
TYPE F F F F
COUNT 1 1 1 1
WIDTH 1187
HEIGHT 1
VIEWPOINT 0 0 0 1 0 0 0
POINTS 1187
DATA ascii
19.222965 0.54494143 -20.027241 34
1.9155045 1.1905788 -20.148916 32.066002
2.2253637 1.0418345 -20.183752 30.456301
2.6365306 0.98804682 -20.113989 28.809
3.0355172 1.0470393 -20.243351 28.75675
3.8354554 0.80385482 -20.084492 29.004999
4.7826633 0.95165765 -20.131132 30.024
5.0846019 0.96857941 -20.289555 29.018
7.0093694 1.1046188 -20.310387 28.002501
7.3936644 1.1318283 -20.070028 28.011499
18.703266 1.1652493 -20.346777 31.25
18.979263 0.980663 -20.214281 32.940651
19.229839 1.0566802 -20.021322 33
1.9452472 1.3369849 -20.023603 27.099001
2.2023816 1.4675407 -20.129242 29.155334
2.5583816 1.4340289 -20.225637 27.283331
3.0381858 1.4765137 -20.244728 26.416668
3.3062239 1.410185 -20.29306 26.5
17.857605 1.4344801 -20.032394 32.048248
18.091219 1.4828581 -20.246099 31.71575
18.731651 1.4391254 -20.316927 31.416666
18.984634 1.3849156 -20.192408 31.796875
19.240978 1.5290989 -20.00761 32
1.9187086 1.8205631 -20.050724 28.5825
2.2256818 1.8436614 -20.090214 26.752239
2.5422428 1.8458462 -20.232954 26.288887
3.0177166 1.8421332 -20.274591 24.944445
3.3063478 1.7634749 -20.279278 25
17.859594 1.7097149 -20.038549 31.046499
18.064686 1.7081721 -20.199944 30.922501
18.727215 1.754683 -20.313936 31
18.961897 1.705829 -20.206713 30.882051
19.286484 1.6242913 -20.048214 31.5
2.234977 2.1799016 -20.144588 26.827545
2.5711529 2.2557228 -20.188564 24.666666
3.0933993 2.2785873 -20.241062 23
3.2978644 2.1218526 -20.275681 23.5
2.2838409 2.5763888 -20.098227 22.736467
2.5512679 2.6025066 -20.235289 22.562046
2.9978845 2.6635678 -20.292372 21.166666
3.2895117 2.5937309 -20.252151 21.5
2.2702017 3.022166 -20.082432 20.446766
2.5599914 2.9997542 -20.208527 19.916666
3.08497 3.1012919 -20.227551 19.5
3.2789459 3.0629301 -20.212616 19.5
2.2690003 3.4115009 -20.089685 18.92923
2.5430429 3.4520092 -20.215124 18.4
2.9076493 3.3820088 -20.255663 18.25
3.2818851 3.433109 -20.218594 18
2.304714 3.7719915 -20.098448 17.525126
2.6272755 3.79021 -20.205608 16.666668
3.0381927 3.7608948 -20.239958 16.888887
3.2736135 3.7789319 -20.192818 16.5
2.6585035 4.0115514 -20.086407 16
2.8355603 4.045989 -20.26326 16
18.187885 -1.8616397 -19.928762 42.037998
19.130159 -1.7227924 -19.783951 42.045502
19.355387 -1.6856661 -19.660206 41.376163
19.134113 -1.3376991 -19.956921 39.5
19.432901 -1.4117633 -19.850965 39.952381
19.668743 -1.393909 -19.666538 39.625
19.082806 -0.93866146 -19.966778 36.75
19.440372 -1.0152898 -19.866148 37.927776
19.661757 -0.9862057 -19.677542 37.733334
19.114132 -0.43364647 -19.918797 36
19.442072 -0.6206699 -19.847973 36.904297
19.669863 -0.63457382 -19.658218 36.875
19.126356 -0.044743966 -19.896072 34.5
19.424673 -0.2552563 -19.847618 36.064518
19.647274 -0.24217822 -19.635101 35.5
19.138521 0.33990848 -19.873669 33
19.421713 0.18848291 -19.808413 34.799274
19.654232 0.2148973 -19.635698 34.388889
2.1996043 0.74711061 -19.734922 31.699667
2.6380868 0.7443375 -19.775431 30.218601
19.061531 0.67863023 -19.916569 31.75
19.413216 0.63626498 -19.813007 33.574558
19.685675 0.6468749 -19.607634 33.333332
1.5548151 0.95788527 -19.749119 30.082001
1.8044399 0.98880541 -19.762945 31.690475
2.137552 0.99856323 -19.864325 30.571737
2.4692135 0.98807657 -19.792694 28.840834
2.8586688 1.0381193 -19.950394 28
4.44314 0.86612862 -19.936916 28.002501
4.9729204 0.90449548 -19.867535 29.518501
19.152712 1.1378959 -19.908394 31.5
19.393679 0.99794185 -19.821236 32.858974
19.62686 0.97956389 -19.622545 32.299999
1.5560403 1.5017644 -19.687361 28.091499
1.811233 1.3918464 -19.732121 30.107841
2.1810675 1.4046019 -19.901659 28.36685
2.5630691 1.3604702 -19.692614 26.5
2.8502069 1.3809773 -19.946568 26.5
17.698509 1.5216553 -19.669069 31.048
19.168619 1.4156319 -19.933624 30.666666
19.401154 1.3902668 -19.794785 31.761404
19.636726 1.5121969 -19.612234 32
1.8495084 1.777619 -19.767616 28.575556
2.1099129 1.8038572 -19.900469 27.633554
2.5237141 1.9095083 -19.736723 24.277779
2.8431177 1.8435131 -19.916012 24.5
17.230526 1.6365569 -19.752274 32.050999
17.753813 1.7000244 -19.845594 31.0478
19.098289 1.7671496 -19.878813 29.422918
19.372438 1.7264522 -19.806023 30.525
1.5156496 2.1146395 -19.648872 28.082001
1.8635157 2.2128496 -19.777231 27.639997
2.17891 2.1763473 -19.873161 25.6702
2.5638144 2.1700077 -19.842402 23.333334
2.9048648 2.1955495 -19.941589 23
1.5704738 2.486295 -19.662552 25.101
1.8905315 2.5836847 -19.732185 23.370371
2.1362512 2.5981023 -19.874994 22.372818
2.5126457 2.6012745 -19.759666 21.333334
2.9080048 2.5227859 -19.941799 21.6
1.8691075 2.9913852 -19.718143 20.633333
2.1241043 2.967031 -19.859793 20.422606
2.6048524 2.9852085 -19.770636 19.611113
2.935626 3.0135887 -19.944397 19.5
1.9053985 3.4282928 -19.70158 18.574074
2.0933266 3.4012659 -19.857477 18.395832
2.5097656 3.4800971 -19.723656 17.5
2.8713694 3.4200544 -19.885334 17.75
1.8714561 3.7606239 -19.69301 16.75
2.1934929 3.7542932 -19.846151 16.575758
2.5306418 3.8928113 -19.848328 15.75
2.9445205 3.7585742 -19.921021 16.333334
19.48484 -1.6675395 -19.334911 41.025497
19.747215 -1.7169211 -19.245205 42.044998
19.527534 -1.5577685 -19.382322 42.044498
19.868177 -1.3560658 -19.425501 39.570175
20.058142 -1.3668402 -19.296921 39.42857
19.530027 -0.94336271 -19.554504 36.75
19.86145 -0.98662823 -19.429285 37.817207
20.070322 -1.0666443 -19.27739 37.625
19.550673 -0.46115416 -19.559372 35.5
19.851027 -0.61971819 -19.433268 36.865589
20.062283 -0.69867921 -19.243626 37.291668
19.513828 -0.06326855 -19.501554 34.5
19.849092 -0.23695013 -19.415134 36.07143
20.054914 -0.25675878 -19.258669 35.625
19.531197 0.31660846 -19.498173 33
19.839563 0.19315676 -19.403023 34.66288
20.033386 0.25345004 -19.279835 34
1.8423408 0.72602499 -19.357014 30.823603
2.0078292 0.76302588 -19.39962 29.0065
2.5047975 0.6698311 -19.267824 32.0275
4.3231459 0.78761005 -19.515018 29.004499
19.565517 0.72220194 -19.518223 32.25
19.821327 0.60406196 -19.407616 33.613823
20.094038 0.56061852 -19.21026 33.5
1.1483504 0.93864733 -19.254284 32.666668
1.4188323 0.98946571 -19.381205 31.11825
1.7711934 0.96929234 -19.447563 28.885315
2.1130478 1.0138513 -19.520227 28.333334
4.931757 0.84746796 -19.361593 28.002001
5.42769 0.88669306 -19.323364 29.015251
7.3923063 1.0745472 -19.551777 28.002001
19.570473 1.1257268 -19.536409 32
19.830524 1.0076256 -19.387959 32.715908
20.029207 0.91263044 -19.329103 32.5
1.1319299 1.5472162 -19.255165 32
1.416008 1.4113848 -19.382191 29.971537
1.7595869 1.4286296 -19.428835 27.574938
2.1370978 1.400702 -19.486403 26.5
17.509195 1.5163456 -19.432295 31.044668
19.571823 1.5245361 -19.530937 30.625
19.838268 1.4237739 -19.366665 31.583082
20.045218 1.4578706 -19.210979 33
1.4172567 1.8084444 -19.377497 28.627861
1.6581784 1.8644986 -19.441296 25.521639
2.1354008 1.847882 -19.463886 24.5
2.4336548 1.8064195 -19.577858 24.5
17.435947 1.680643 -19.417809 32.0485
18.975134 1.8942913 -19.454126 28.033499
19.49922 1.8232828 -19.509947 28.9
19.760389 1.7744831 -19.395016 30.666668
1.4249423 2.1950338 -19.36351 27.294935
1.7030221 2.204325 -19.457439 25.766584
2.1324036 2.2949662 -19.446096 22.5
2.4575434 2.2634261 -19.584145 22.5
1.4643022 2.585793 -19.367119 22.5
1.7089078 2.600565 -19.454214 21.616667
2.2193491 2.6154785 -19.443739 21
1.4672414 3.0094049 -19.324371 20.372334
1.7148309 2.9904439 -19.462051 19.991072
2.1061509 3.0174396 -19.477062 19.5
2.4483814 2.8362787 -19.565693 20
1.4687241 3.4023798 -19.320101 18.444445
1.6853663 3.4156647 -19.405008 17.958334
2.1071241 3.4689338 -19.454851 17.5
2.5042806 3.2979372 -19.545845 18
1.4501158 3.7019329 -19.283693 17
1.7345233 3.7913306 -19.396187 16.111111
2.1077142 3.8086317 -19.437708 16
17.59318 -1.9068153 -19.087179 43.046501
18.004644 -1.8440261 -19.167061 42.028999
19.912081 -1.6760114 -19.026983 41.369167
20.019272 -1.6920878 -18.9226 41.047001
19.978754 -1.2215049 -19.086325 39
20.231359 -1.3645955 -19.038378 39.673912
20.436131 -1.339488 -18.821415 39.666664
20.219484 -0.98446089 -19.038034 37.813007
20.437958 -1.0320882 -18.862402 37.75
20.223839 -0.60379463 -19.001577 36.88158
20.435036 -0.62292546 -18.847107 36.5
20.21126 -0.22332461 -19.003181 35.916668
20.409319 -0.31039715 -18.873688 36
20.206589 0.19638978 -18.995537 34.617119
0.92683226 0.73328012 -18.849144 32.333332
1.4036953 0.6766336 -18.97192 31.145372
1.8289495 0.70840281 -18.993801 29.001125
3.1001415 0.68266404 -19.101135 30.520248
3.3112898 0.72077489 -19.074236 30.522251
4.8266134 0.77890563 -19.137291 29.004
19.932775 0.62784284 -19.086784 33
20.180464 0.61941254 -19.001577 33.527027
0.61038989 0.98797494 -19.050249 30.577
1.009912 0.97010833 -18.986425 31.659233
1.3000224 0.96712559 -19.082787 29.388889
1.8027318 0.98323405 -19.038158 28
5.4798307 0.85378885 -18.945585 29.012249
5.9535923 0.88289046 -18.806923 29.017
7.698103 1.0814865 -19.134098 28.011
19.873966 1.0992384 -19.174374 30
20.170303 1.0067638 -18.998371 32.605408
0.59872472 1.4374199 -18.922464 28.0875
1.0025626 1.4159895 -18.966822 30.040321
1.3149368 1.4159473 -19.049171 28.555555
1.7935548 1.3067408 -19.017012 26.5
17.045216 1.4148618 -18.93997 31.548643
17.299564 1.5738263 -19.146864 31.546001
19.937651 1.451921 -19.15502 30.6
20.176224 1.4179989 -18.980896 31.4
0.58651465 1.8287265 -18.943871 29.077
1.0269132 1.8073344 -18.975168 28.52219
1.2857507 1.8441648 -19.061703 25.90625
1.787744 1.7439375 -18.984221 24.5
17.033224 1.6247036 -18.895592 31.048
18.093327 1.7745706 -19.066692 29.543499
19.265478 1.8616292 -19.08239 29.044001
19.916046 1.8236754 -19.09169 28.854498
20.158474 1.7934765 -18.966076 30.52174
1.0342857 2.1707499 -18.9688 27.092079
1.297057 2.2967885 -19.101 23.462961
1.7583984 2.181237 -18.965113 22.5
1.0454062 2.6221783 -18.94241 22.15
1.2854007 2.6131368 -19.077211 21.557142
1.7778958 2.6449757 -18.983612 20.416666
1.0110326 3.0686674 -18.902946 19.787878
1.2990005 3.0098302 -19.099777 19.93
1.8155537 2.9719677 -18.973373 18.916668
1.0551614 3.3806517 -18.925665 18.738096
1.3260573 3.4000766 -19.033815 17.595833
1.7475586 3.4289477 -18.899359 16.800001
1.0216119 3.6365032 -18.903305 17
1.2766198 3.6834211 -19.107773 16.5
1.9266028 3.6474495 -19.063087 16
20.207846 -1.6614532 -18.562809 41.532749
20.247423 -1.4338971 -18.652842 40.45911
20.606699 -1.3615096 -18.59293 39.592106
20.36257 -0.93873107 -18.645916 38
20.616013 -0.98800826 -18.590679 37.594593
20.345577 -0.54627711 -18.634933 35.75
20.569588 -0.59687179 -18.607935 36.595062
20.33497 -0.12866823 -18.731398 35.57143
20.579206 -0.23264246 -18.578615 35.859379
20.351175 0.24835221 -18.740538 34.5
20.567724 0.17758206 -18.557281 34.487617
0.61803865 0.74361825 -18.572807 31.677721
1.0069931 0.65559065 -18.604368 31.209999
1.3265017 0.6205321 -18.595325 31.017401
1.9520497 0.52930474 -18.658791 30.0065
2.4453685 0.56566024 -18.585335 29.004
3.1960011 0.63754201 -18.547228 32.027
3.547164 0.63374037 -18.570299 30.0145
3.7987001 0.68914312 -18.583601 30.689499
5.2754388 0.76466751 -18.614937 29.0035
19.942902 0.66411084 -18.75898 31.5
20.267874 0.62459254 -18.713064 33.357143
20.539488 0.60390437 -18.555246 33.317207
0.63110852 0.98571056 -18.570583 31.635897
0.90967417 0.96850115 -18.695246 29.688435
1.4162278 0.9607749 -18.648254 28
5.7446074 0.82299727 -18.546753 29.012501
7.7390079 1.0446999 -18.798477 28.001499
20.376165 0.97691327 -18.711058 32.458332
20.561665 0.99159682 -18.533747 32.40778
0.6130088 1.4032817 -18.572479 29.962929
0.92335826 1.4055271 -18.674847 27.705242
1.3235259 1.2699419 -18.536686 26.5
16.769447 1.392369 -18.625477 31.04825
16.841007 1.4240004 -18.715866 31.848598
20.365351 1.3641444 -18.72637 31.277779
20.548372 1.4465246 -18.53525 31.172413
0.64999986 1.7956551 -18.594099 28.500572
0.89255196 1.8383698 -18.682993 27.41111
1.4447367 1.7086157 -18.640638 24.5
16.947363 1.6739502 -18.738232 30.0485
17.92631 1.8023615 -18.466377 28.539
19.054653 1.8691704 -18.582035 30.5485
19.243114 1.9131002 -18.615448 30.0455
20.338829 1.7993478 -18.698338 29.397434
20.527599 1.7971791 -18.530165 30.214285
0.66444021 2.1913526 -18.564039 25.640955
0.92948192 2.233016 -18.691977 24.592421
1.3654337 2.2163084 -18.664015 22.333334
20.14607 2.0005021 -18.462229 26
0.69383639 2.6057208 -18.552912 22.919571
0.90819085 2.6787612 -18.640596 21.443333
1.4340549 2.5678568 -18.604692 20.5
0.66900826 3.0325246 -18.490179 19.888891
0.91835088 3.0544443 -18.688526 19.683332
1.45667 3.0009332 -18.606787 18.5
0.69322348 3.3427687 -18.511932 18.887501
0.93988568 3.4224355 -18.689995 17.820513
1.4848194 3.4392264 -18.62488 16.5
0.78389502 3.6025174 -18.643383 15
0.90048051 3.6212633 -18.738256 16.5
18.42498 -1.7976589 -18.304352 42.0285
19.172539 -1.7695004 -18.289286 42.036999
20.257332 -1.682092 -18.253494 41.535751
20.543871 -1.6403246 -18.095324 40.695999
20.83156 -1.6541196 -18.031668 37
20.662111 -1.3994154 -18.345814 40.339333
20.911463 -1.3311942 -18.205654 39.527523
20.740299 -1.0246838 -18.331919 38.238094
20.914209 -1.0126221 -18.184011 38.159203
20.741072 -0.57268041 -18.324848 36.607143
20.928783 -0.56413376 -18.146555 36.761108
20.740761 -0.17682457 -18.300478 35.644447
20.904785 -0.20276958 -18.15535 35.655174
0.68896294 0.39700598 -18.116642 34.058998
20.730614 0.18213956 -18.267147 34.599998
20.888355 0.19186009 -18.13903 34.759258
0.27183989 0.71434182 -18.156893 32.059052
0.60198224 0.66215354 -18.184561 30.829645
0.97131568 0.61082029 -18.232744 30.427332
1.4144973 0.425533 -18.128109 31.0165
1.6580434 0.51609164 -18.199959 31.524
2.2723055 0.57629758 -18.393021 32.030499
2.4586453 0.52413595 -18.318932 30.006001
3.7977419 0.61412984 -18.10898 32.026501
4.1787286 0.65294152 -18.148321 30.352333
5.704031 0.751104 -18.108242 29.003
20.731745 0.61955553 -18.257647 33
20.892862 0.6031425 -18.120428 33.137932
0.27049387 1.0051439 -18.170776 30.975206
0.54398084 0.99042422 -18.25857 29.527084
0.95860165 1.1183701 -18.28849 27.450001
5.8414164 0.81337678 -18.264563 28.000999
6.3206253 0.84029067 -18.037973 29.0165
20.728142 1.0537652 -18.264442 31.833334
20.88909 1.0014688 -18.118807 32
0.26728597 1.4056736 -18.167236 30.157883
0.51864207 1.4250166 -18.274855 28.268335
0.92799658 1.454036 -18.264404 25.833332
20.727844 1.4151077 -18.285772 31.321428
20.875963 1.4432322 -18.114124 31.340582
-0.36097825 1.8951575 -18.103186 26.097
0.25241187 1.8333443 -18.149626 28.967943
0.5202294 1.8079593 -18.288809 27.645555
0.93308163 1.7763053 -18.264858 24.550375
17.317875 1.7138155 -18.027966 28.0385
18.354776 1.8130426 -18.307304 31.047501
18.421234 1.8030436 -18.217756 29.0445
18.899872 1.860993 -18.046217 29.0455
19.368336 1.9249158 -18.236 30.0445
20.689402 1.7982213 -18.271374 29.622808
20.87701 1.7553803 -18.088425 29.695238
0.28036365 2.1979949 -18.129774 26.631893
0.54355919 2.2349982 -18.22901 24.416666
0.97763079 2.1543641 -18.290192 22.5
0.29109666 2.6238055 -18.084599 23.109808
0.55632335 2.6175628 -18.236744 21.616667
0.93223983 2.5685728 -18.173044 20.366667
0.28264436 3.0162535 -18.050646 20.75
0.53955406 3.0036726 -18.211645 19.5455
0.975779 2.9912031 -18.249031 18.5
0.36722884 3.3893335 -18.179007 18.666666
0.55225706 3.3490794 -18.225332 18.386364
0.97443312 3.355092 -18.230389 16.75
19.054653 -1.7159344 -17.722967 42.022999
21.228653 -1.6133184 -17.851667 39
21.063982 -1.3494381 -17.803411 38.897335
21.251932 -1.2738441 -17.666016 39.5
20.795734 -1.0643543 -17.999678 36
21.047373 -0.96967077 -17.869556 38.025505
21.243237 -1.0319512 -17.694193 38.025002
21.079411 -0.64344162 -17.804169 36.93182
21.234032 -0.55278784 -17.664211 36.650002
21.081839 -0.22646284 -17.818016 35.238113
21.218744 -0.21539102 -17.673594 35.708332
0.78825855 0.39595693 -17.700132 34.033001
21.109138 0.20238441 -17.794075 34.022179
21.225088 0.16393429 -17.647783 34.277779
-0.05868711 0.67352754 -17.692305 32.57143
0.16000035 0.68004102 -17.838852 31.764071
0.54722357 0.55908048 -17.836334 31.805899
1.8431503 0.44877318 -17.804932 32.023666
2.216608 0.49700505 -17.791548 31.5235
2.6581373 0.48868367 -17.614233 31.02
2.9518967 0.54053462 -17.953121 31.01775
3.4498758 0.53407139 -17.827732 29.504
3.9529314 0.54565668 -17.604481 29.002501
4.5176406 0.63245744 -17.762159 30.351835
6.1183891 0.79323316 -17.883314 29.011999
21.078308 0.61944377 -17.824221 32.397217
21.235542 0.62019122 -17.639917 32.791668
-0.046983231 1.0335721 -17.709694 31.509092
0.1427279 1.0430058 -17.856344 30.210526
0.5698716 1.0318518 -17.802559 27.75
0.82012105 1.02246 -17.964212 27.5
6.292346 0.80108941 -17.816654 28.0005
21.04619 1.0386242 -17.854376 31.631578
21.224779 0.98128128 -17.62557 32.666668
-0.040964138 1.4345905 -17.704731 30.327272
0.14864913 1.4095782 -17.858047 29.230099
0.53781998 1.4245383 -17.860214 26.1
0.81384277 1.5325651 -17.928234 25
20.734509 1.3329641 -17.977394 28.5
21.032446 1.4167718 -17.837652 30.613674
21.255775 1.3364052 -17.636799 32
-0.047013044 1.8410457 -17.691734 29.125
0.1508882 1.8186162 -17.817799 27.391666
0.50783175 1.7814091 -17.806162 24.333334
0.80405045 1.7447072 -17.953896 24
16.950207 1.6615636 -17.802834 31.0495
17.881155 1.776902 -17.62542 31.049999
18.301908 1.8317564 -17.816799 30.047001
20.74054 1.8175304 -17.955591 26.5
21.023329 1.7521862 -17.858078 29.193689
21.227226 1.653708 -17.628983 30.5
-0.042698395 2.1359248 -17.650785 26.374296
0.12172359 2.1944299 -17.814367 25.75169
0.55036306 2.1798902 -17.78154 22.208334
0.80288458 2.356102 -17.902248 21
-0.032093227 2.5200593 -17.669804 25.033998
0.14200932 2.6035199 -17.800947 21.230303
0.58684385 2.605036 -17.837772 20.291666
-0.022970527 3.002655 -17.635155 21.533998
0.15008372 2.9935834 -17.794847 19.74173
0.58506417 3.0812588 -17.821716 17.833334
0.83037615 2.9106646 -17.885639 18.333334
-0.031918287 3.2887142 -17.603085 18.666666
0.18595846 3.3765595 -17.769899 17.088888
0.5734216 3.4024007 -17.830263 16.453144
0.99589306 3.3957489 -17.899595 16.333334
1.4369817 3.4711349 -17.767427 16
0.70176345 3.6661098 -17.907217 15.2
0.98956496 3.6553774 -17.849649 15
18.804924 -1.7531404 -17.463837 42.028
19.586842 -1.7201679 -17.422628 42.036499
20.636959 -1.636811 -17.211008 42.043999
21.169773 -1.4526571 -17.212877 41.043999
21.389462 -1.3200635 -17.401026 39.574074
21.136316 -1.1031039 -17.476021 38.5
21.407501 -1.0097902 -17.396957 37.828369
21.137644 -0.62884051 -17.430542 36.5
21.370007 -0.61028385 -17.419111 36.854168
21.14662 -0.2778286 -17.41844 35
21.367548 -0.22398023 -17.419216 35.562057
0.20782028 0.33942884 -17.42506 31.593929
0.72008598 0.33216935 -17.355911 31.01375
0.85595894 0.28163558 -17.309929 31.0075
1.6026573 0.37772918 -17.213551 34.032501
21.149702 0.089406513 -17.385603 33.5
21.360994 0.21681748 -17.398664 34.402737
-0.1893436 0.65364301 -17.393955 32.605
0.20026541 0.53230578 -17.394899 31.133333
0.51227587 0.55961233 -17.40641 30
2.3988042 0.40329647 -17.45414 31.015499
2.4146724 0.48797524 -17.52854 32.026001
2.978545 0.4702718 -17.253288 31.522751
3.8938212 0.51097298 -17.386726 30.004499
4.8485165 0.61827475 -17.389938 31.02375
6.1063399 0.73724604 -17.593025 29.002501
6.4754314 0.76611459 -17.273445 29.011499
21.160593 0.64716214 -17.456074 32.853168
21.349394 0.62003011 -17.41687 33.294117
-0.40177155 0.9740321 -17.346268 32.057499
-0.18918203 1.0150918 -17.420666 30.984238
0.1691567 0.9544484 -17.368643 27.975
0.56584644 0.99866009 -17.565815 27.5
21.129501 0.97812891 -17.465036 31
21.335094 0.99406993 -17.417974 32.207317
-0.18924505 1.4181203 -17.40024 29.686932
0.15498145 1.42576 -17.42487 25.466667
0.5562501 1.3993077 -17.555515 25.5
21.144302 1.3386631 -17.489382 30.611902
21.338488 1.4163727 -17.404617 30.94961
-0.41079426 1.8907712 -17.304131 30.057501
-0.18177234 1.8220477 -17.402327 27.925493
0.16537216 1.7981822 -17.347664 23.75
0.55250359 1.8012136 -17.534084 23.5
16.907434 1.7284439 -17.436966 30.0495
17.653795 1.7526591 -17.459175 29.045
18.209225 1.8064387 -17.382837 29.547249
18.522793 1.8643653 -17.51227 30.045
21.139378 1.7495253 -17.470932 27.775
21.30718 1.7462115 -17.399195 30.16
-0.18147007 2.2116621 -17.393509 26.089457
0.087134629 2.1353302 -17.435413 22
0.53146219 2.2318459 -17.489361 21.333334
-0.13896677 2.5906558 -17.413517 21.790257
0.15029554 2.5708435 -17.464308 20.083334
0.5586133 2.5751266 -17.526993 19.666666
-0.14234391 2.9912033 -17.377195 19.820427
0.21184795 3.0257826 -17.468037 17.9
0.55813599 2.9802437 -17.499767 17.666666
-0.12845409 3.4128792 -17.378506 16.604601
0.16751078 3.4022067 -17.429319 16.125
0.56194782 3.416995 -17.499872 15.5
1.2102892 3.5069847 -17.553499 16.0215
0.57888269 3.7322171 -17.554462 14
17.695084 -1.843019 -16.988546 43.037998
18.580959 -1.776257 -16.869293 43.045502
20.662704 -1.58509 -17.060734 41.0215
21.174017 -1.4706172 -17.13361 41.0345
21.335257 -1.4204861 -17.047815 40.025288
21.684969 -1.2551132 -16.929735 39.07143
21.524361 -1.003778 -17.143335 38.111111
21.672998 -0.99114913 -16.960159 37.724133
21.510767 -0.58077705 -17.129856 36.8125
21.658804 -0.59936476 -16.945154 36.642857
21.522686 -0.19766177 -17.095989 35.760002
21.663528 -0.22894809 -16.929974 35.306351
-0.12006246 0.31788895 -16.963356 33.156624
0.1162072 0.31412745 -17.133469 33.700169
0.44808632 0.27276203 -17.096249 32.522751
1.0184274 0.30575013 -16.959034 33.2855
1.2654105 0.30996597 -17.085493 31.011168
1.7324686 0.31054029 -16.916018 31.347502
2.0846298 0.33223435 -16.818434 30
2.9275753 0.39190832 -16.968773 32.021248
21.498188 0.17779283 -17.102249 34.558823
21.65836 0.2089251 -16.909864 34.392593
-0.47788435 0.64555812 -16.940035 31.768307
-0.23711045 0.5785054 -17.045807 32.046154
0.20260304 0.50059128 -17.042458 30.25
2.4113994 0.40568075 -17.174246 33.028
2.940083 0.46741965 -17.136208 32.025501
3.4698405 0.45209861 -16.8498 31.522251
4.3324714 0.50523818 -17.025076 30.004
4.4034605 0.53673244 -17.182056 29.002001
4.9697857 0.60408115 -17.135029 30.015251
6.4992018 0.72498012 -17.11636 29.002001
21.502127 0.59233004 -17.097778 33.137257
21.657192 0.60533661 -16.899225 33.162224
-0.44690585 1.033815 -16.930658 30.393536
-0.26193124 0.99858779 -17.041592 29.803734
0.20768332 0.91491854 -16.940306 27.75
21.516973 0.94628006 -17.078436 32.190475
21.664743 0.9396438 -16.890135 32.5
-0.48484382 1.398798 -16.897999 29.076183
-0.25537518 1.4138783 -17.061747 28.309021
0.17335129 1.3027511 -17.032124 26.083334
21.514662 1.3929565 -17.060141 31.098764
21.666252 1.3710754 -16.892633 30.772728
-0.45824492 1.7848747 -16.919935 27.680397
-0.29172388 1.8128116 -17.062073 26.751455
0.17241335 1.7649632 -17.019238 23.708334
16.930132 1.7123426 -16.869234 30.048
17.399523 1.7592044 -17.06056 30.298
17.743223 1.8124532 -16.88652 30.0455
21.494343 1.7327775 -17.034874 29.5
21.646318 1.6834112 -16.854666 30
-0.45129576 2.1726856 -16.890871 25.600201
-0.28848019 2.2127872 -17.040258 24.822903
0.17533648 2.1928449 -17.005512 21.5
-0.4319534 2.57019 -16.884489 20.805555
-0.27540323 2.6074355 -17.042923 22.320372
0.18313821 2.5901382 -17.062016 19.611113
-0.42622414 3.012342 -16.877081 18.633333
-0.25447127 3.0198545 -17.021395 19.236366
0.19305904 2.9642298 -17.048197 17.722221
-0.42877126 3.2577336 -16.851822 15
-0.16223314 3.3322792 -17.002153 16.142857
0.19430804 3.391171 -17.136618 15.833334
0.36074209 3.6411901 -17.149498 14
17.472662 -1.8360027 -16.722557 43.028999
19.306801 -1.6684864 -16.777935 42.022499
21.511 -1.4274008 -16.501989 40.025501
21.830208 -1.3281534 -16.557486 39.561386
22.052349 -1.4246138 -16.404507 38
21.840408 -1.0129294 -16.61305 37.534187
22.071012 -1.021347 -16.495974 36.5
21.835722 -0.62436366 -16.597939 36.770836
22.125742 -0.70050985 -16.5303 35.5
21.827078 -0.2510539 -16.600506 35.477478
22.067184 -0.28050053 -16.50165 34
-0.5688895 0.37967175 -16.486214 32.000126
-0.21159919 0.27569115 -16.573271 32.799778
0.0018211529 0.1608786 -16.625235 30
0.44293404 0.23438939 -16.731503 34.029999
0.99447101 0.22641155 -16.62249 33.023247
1.4908606 0.25836831 -16.600298 32.28825
1.6908484 0.30700487 -16.603559 32.021
2.3026152 0.31088915 -16.600939 31.345667
2.715488 0.30465135 -16.453541 30.50275
3.3012214 0.3805421 -16.725037 31.0145
21.815554 0.18894905 -16.600365 34.083332
22.233742 0.035040952 -16.462828 33.5
-0.56148958 0.57988322 -16.603302 32.088226
-0.30770659 0.57885385 -16.589491 30.700001
0.012242794 0.5601387 -16.538521 29.5
3.4397337 0.44698247 -16.73226 32.025002
4.0084968 0.43338946 -16.459669 31.018499
4.7562065 0.49960566 -16.667538 30.0035
4.8384848 0.52840233 -16.773474 29.001499
5.3396173 0.57917672 -16.602362 30.350836
6.8458061 0.72713447 -16.677433 29.006248
21.811977 0.61010963 -16.604107 32.847622
22.19002 0.50194573 -16.487505 31.75
-0.58934695 0.98841631 -16.563328 30.441143
-0.27007613 0.99320328 -16.633049 27.887066
0.096681595 0.94625604 -16.661848 27.5
21.803116 0.96598446 -16.584484 31.615198
22.169348 0.99218112 -16.481552 30.666666
-0.58084738 1.3848464 -16.545084 29.309418
-0.25028542 1.4230026 -16.641386 25.361444
0.0021381378 1.4064863 -16.51655 25
21.784685 1.403705 -16.606083 30.583689
-0.80270731 1.7915885 -16.760015 27.087999
-0.59698343 1.7974554 -16.552176 27.196268
-0.1642065 1.8578876 -16.521603 23.166668
0.035606384 1.6082143 -16.612394 24
16.684488 1.7280004 -16.527981 30.048
17.380051 1.7644914 -16.749546 29.046499
21.777863 1.7327536 -16.596367 29.75
22.247946 1.6711136 -16.441603 30
-0.5805105 2.1578362 -16.573551 25.766689
-0.25209078 2.1360538 -16.556711 22.100332
0.072762012 2.3835061 -16.681808 20
-0.56233698 2.601702 -16.576677 21.65303
-0.25965923 2.6057034 -16.582287 19
-0.53515702 2.9864006 -16.579752 18.894154
-0.16397905 2.939065 -16.630772 17.3125
-0.52606243 3.3111954 -16.56303 16.25
-0.20123906 3.3604889 -16.610212 15.34375
0.1131595 3.3710959 -16.659473 14.833333
18.106171 -1.7780371 -16.116348 43.037498
19.042418 -1.6762027 -16.312559 42.0275
19.832565 -1.6320715 -16.142946 42.035999
20.676853 -1.5656753 -16.001173 41.026001
20.906528 -1.5613896 -16.257568 41.021
21.723335 -1.407683 -16.327137 40.428699
22.093575 -1.2411362 -16.163086 38.666668
21.958227 -1.0575004 -16.349411 38.5
22.096714 -1.0164143 -16.144596 37.716175
22.467674 -1.136902 -16.078465 38.5
21.966681 -0.57566035 -16.308384 36.708332
22.087053 -0.63576621 -16.13825 36.840004
22.490837 -0.79680336 -16.0179 37
21.956699 -0.19254331 -16.276228 35.719395
22.086847 -0.27536356 -16.140287 35.159092
22.455599 -0.020887624 -16.016766 33.666668
-0.52183282 0.30008751 -16.134718 32.9114
-0.29865688 0.2158822 -16.153032 32.927269
0.28024754 0.13613842 -16.116594 33.020832
0.71064186 0.17277083 -16.169456 34.0345
0.97275782 0.1582316 -16.041636 35.033501
1.7498779 0.21663231 -16.219055 33.022499
2.0805137 0.27898189 -16.283615 32.691334
2.5802002 0.27215421 -16.012882 32.523003
3.0675497 0.31142032 -16.173241 31.008873
3.4891458 0.34947979 -16.224083 31.5135
3.7222514 0.36918509 -16.351023 31.014
4.1352224 0.35885513 -16.031683 31.0135
21.949059 0.18994793 -16.28931 34.365242
22.090805 0.1895799 -16.15057 33.773811
-0.83885884 0.54755902 -16.077293 32.890739
-0.70305395 0.58036208 -16.217463 31.398912
-0.19887662 0.54544026 -16.107058 29.5
3.8941116 0.43121484 -16.390438 32.02475
4.3530521 0.41811669 -16.02935 32.024502
4.4135199 0.4152225 -16.053524 31.018
5.1601353 0.49353561 -16.294424 30.003
5.7235079 0.56102085 -16.154222 30.01425
21.962498 0.60208315 -16.259247 33.294117
22.05106 0.59298426 -16.152676 32.869045
-0.84652656 0.97963291 -16.114702 30.326149
-0.71252972 0.99715847 -16.248077 30.257879
-0.32282996 0.96095639 -16.292406 28.199999
21.95565 0.92366445 -16.269506 31.697916
22.094681 1.0192479 -16.14411 31.078947
22.432465 0.82599831 -16.007145 30
-0.83297348 1.3459766 -16.100792 29.259481
-0.70452589 1.4137006 -16.24769 28.969833
-0.27559781 1.4076076 -16.27494 25.549999
21.934641 1.372028 -16.236038 30.583178
22.052753 1.3830808 -16.119108 30.552631
-0.8404597 1.7659434 -16.122765 27.511333
-0.71181703 1.8415968 -16.238634 26.466309
-0.19852114 1.6681459 -16.118681 23.4
16.665274 1.7160032 -16.227842 29.54825
17.011299 1.7629671 -16.289125 30.046
21.940725 1.6935143 -16.254238 29.666666
22.125387 1.6733764 -16.137947 29.194443
-0.83083898 2.172477 -16.106737 25.4102
-0.69996315 2.1979878 -16.218376 24.107843
-0.28112698 2.2161875 -16.253916 21.183334
-0.81245649 2.612783 -16.058224 23.5
-0.68218064 2.583977 -16.194189 20.437593
-0.26932412 2.5562372 -16.181906 18.987499
-0.80156517 2.9144917 -16.026188 16
-0.69090933 2.9798779 -16.180729 17.799999
-0.2283366 3.0525413 -16.266174 16.575001
-0.62465423 3.3515844 -16.221613 15.333333
-0.18845844 3.3067307 -16.066933 14.5
19.028736 -1.6774768 -15.659025 43.043499
19.376192 -1.6079221 -15.719356 41.520752
20.441826 -1.518005 -15.718196 40.016998
21.879204 -1.4083514 -15.824167 39.526123
22.216551 -1.2398161 -15.810166 39.285713
22.244629 -1.0249966 -15.77248 37.82
22.550282 -0.96454012 -15.737174 36.875
7.976769 -0.73265821 -15.975315 36.054001
22.224592 -0.60582817 -15.775508 36.570515
22.543806 -0.5692656 -15.846723 36
22.201811 -0.20404625 -15.804963 35.213333
22.580421 -0.1036155 -15.776323 34
-0.92793751 0.33617896 -15.74515 32.849998
-0.6128431 0.22517829 -15.820388 33.347439
-0.30988118 0.16345192 -15.860356 32.615398
0.25027624 0.091549903 -15.750466 33.270874
0.56111133 0.11336102 -15.852916 32.519249
0.96507794 0.11254721 -15.753967 32.51675
1.2774463 0.093144998 -15.700751 32.007
1.690886 0.1515476 -15.706887 35.033001
2.2599366 0.20969701 -15.926418 33.021999
2.6239374 0.22843131 -15.855662 32.520752
3.0335472 0.25526378 -15.671695 32.690334
3.5495596 0.29523575 -15.821044 32.01725
3.7418861 0.32074961 -15.87045 30
4.0734668 0.3192732 -15.771854 31.3435
4.6605988 0.3690179 -15.65255 31.51825
4.8083649 0.39859805 -15.705718 31.0175
22.190451 0.17648718 -15.816141 34.166668
22.519625 0.1943713 -15.636461 32.5
-0.94125926 0.5806154 -15.788631 32.260105
-0.64431703 0.60284913 -15.848746 30.286612
-0.31981611 0.53719658 -15.860707 29.5
4.3638353 0.40836227 -15.9793 32.023998
5.5454626 0.48719886 -15.912356 30.002501
5.9700422 0.52632165 -15.742804 30.011499
6.1956749 0.55784774 -15.712605 30.016001
22.199772 0.60321671 -15.796608 32.818626
22.523102 0.48546308 -15.836035 31.416668
-0.95672327 1.006623 -15.762472 30.874628
-0.67582971 1.0218998 -15.877692 27.572222
-0.35637212 1.0443087 -15.786718 26.666668
22.191162 0.96413153 -15.792134 31.360607
22.50742 0.98388064 -15.844713 29.25
-0.94002086 1.3993719 -15.761098 29.267004
-0.65371436 1.3926615 -15.866167 25.99795
-0.34746742 1.4053185 -15.800985 24.666668
22.191982 1.3714356 -15.780291 30.194139
22.555094 1.426373 -15.70106 27.25
-0.93641442 1.7860216 -15.763001 27.429733
-0.63860399 1.8421867 -15.858652 23.716282
-0.38965845 1.7662919 -15.727272 22.625
22.144255 1.6687883 -15.819876 29.884615
22.438759 1.6199728 -15.955187 26.5
-0.92405623 2.1494536 -15.785046 26.071632
-0.68764013 2.2400997 -15.883772 22.323809
-0.33421469 2.1648512 -15.827484 20.5
-0.9060201 2.5708652 -15.745788 21.583334
-0.58961999 2.6856897 -15.861464 18.316666
-0.36354351 2.6452687 -15.728858 17.75
-0.89177299 2.9672337 -15.769475 18
-0.6750747 3.0053642 -15.80018 17.010418
-0.33298492 2.9182048 -15.790591 16.333334
-0.57352543 3.3273885 -15.740304 15
-0.33667159 3.2709947 -15.755012 14.333334
17.733648 -1.7386483 -15.532593 43.0285
18.1938 -1.6795661 -15.289194 43.022999
19.24902 -1.6075956 -15.263346 42.027
22.445644 -1.8660021 -15.471634 37.044998
22.23451 -1.340279 -15.400026 39.797054
22.463593 -1.3147702 -15.255122 38.333332
22.33758 -0.98161483 -15.500473 37.941544
22.483829 -1.0308797 -15.338808 37.691357
22.338053 -0.59458733 -15.461103 36.682537
22.480852 -0.59561229 -15.32444 36.260414
-0.62755775 -0.031484772 -15.356096 33.030251
22.323679 -0.20583224 -15.47561 35.355869
22.472206 -0.2156875 -15.316359 35.049202
-1.2252584 0.31866601 -15.248114 34
-1.0436337 0.26897097 -15.39162 33.216942
-0.65424627 0.13238381 -15.474193 32.972954
-0.070350647 0.030741476 -15.392458 35.030998
0.094921112 0.058462959 -15.357528 34.548
0.59260476 0.057117354 -15.441417 34.025501
0.88090569 0.078964911 -15.47872 33.522499
1.3217921 0.083558954 -15.386296 33.830498
1.6740286 0.11057972 -15.458563 32.515999
2.2013364 0.1198897 -15.304087 33.018501
2.7798872 0.17124797 -15.566154 31.56325
3.1285419 0.19241753 -15.467918 32.0145
3.4496338 0.22327797 -15.355118 32.822197
3.845906 0.24510214 -15.214032 32.018501
4.4763608 0.30243382 -15.391335 30.334501
5.0437517 0.35985622 -15.344126 31.014751
5.2021561 0.37191767 -15.271321 32.022999
22.325581 0.2271897 -15.456333 33.847126
22.436056 0.19956341 -15.304343 33.962963
-1.3515402 0.49750233 -15.233848 33.333332
-1.0666656 0.59637582 -15.419959 31.91077
-0.60035616 0.686432 -15.504157 29
4.8080368 0.40048504 -15.580961 32.023998
5.9296689 0.4819552 -15.56995 30.002001
6.3197584 0.49475271 -15.309076 30.006248
22.324829 0.60476774 -15.448724 32.872223
22.488651 0.60486561 -15.334543 32.366665
-1.6270362 1.1997367 -15.464159 27.0975
-1.3403196 0.93136156 -15.24291 31.766876
-1.0796455 0.98624051 -15.399626 30.615496
-0.57387465 0.94409972 -15.476863 27.388887
22.327503 1.0018251 -15.424326 31.351011
22.5158 0.97064638 -15.289002 29.722223
-1.2695663 1.429161 -15.303288 29.516874
-1.0731136 1.3942999 -15.415514 28.820576
-0.64245063 1.3486485 -15.440103 25.200001
22.308744 1.3796061 -15.420115 29.696402
22.479078 1.4029979 -15.37134 29.166666
-17.255409 1.7948024 -15.214329 31.046499
-1.6559688 1.6933128 -15.388998 26.0975
-1.2274795 1.7635281 -15.208899 28.049999
-1.0655476 1.8266358 -15.420808 27.033817
-0.6235767 1.8510269 -15.37991 22.166666
21.885658 1.7755427 -15.223809 29.510668
22.250242 1.7689271 -15.339706 29.2609
22.419828 1.7452862 -15.301161 29.25
-1.2179403 2.2106345 -15.226145 27
-1.0773743 2.1866214 -15.38901 25.045927
-0.67405558 2.1536362 -15.482071 21
21.930374 2.0918131 -15.214272 30
22.235262 2.0629253 -15.23895 27.962227
22.401697 2.0350165 -15.221937 24
-1.0621903 2.6090269 -15.362329 22.042976
-0.56164664 2.5376263 -15.489717 18.388887
-0.99613345 3.0247059 -15.394066 16.929886
-0.62081343 2.9527144 -15.428066 16.1
-0.93848157 3.2616563 -15.470451 14
-0.49205065 3.2054546 -15.44941 14.333333
18.390694 -1.6780404 -14.904478 43.036999
20.084257 -1.5658309 -15.10734 42.0355
20.635042 -1.4852784 -14.974496 40.01725
20.867496 -1.5054791 -15.043999 41.023003
22.098173 -1.4058825 -15.142079 39.520752
22.519926 -1.2159493 -15.019449 39.608299
22.914509 -1.2478106 -14.977119 39
22.395908 -1.0873319 -14.831736 36
22.508709 -0.95817792 -14.996283 37.91777
22.910881 -0.89643037 -14.913818 37.416664
22.506088 -0.58953983 -15.010201 36.632477
22.846443 -0.47283745 -15.02786 35.5
-0.91443372 -0.040820464 -15.0193 33.353832
-0.64025217 -0.049466725 -14.886685 34.370998
-0.25217715 -0.054489035 -14.906139 34.359081
0.14721727 -0.038538676 -14.929714 33.520622
0.48082066 -0.024577022 -14.810638 36.0345
22.518906 -0.21993442 -15.007153 35.288292
22.860203 -0.02437463 -15.005974 33.5
-1.2998439 0.27040741 -14.976882 33.506664
-0.99620777 0.16752398 -15.012915 33.809544
-0.67319417 0.15657258 -15.036337 32.299999
0.97494912 0.037526373 -15.156368 35.032997
1.5579429 0.029569633 -14.970234 35.029499
1.799332 0.077610858 -15.041339 33.690166
2.2630517 0.093414761 -14.943192 32.543499
2.5254197 0.10028569 -14.959741 32.009666
3.0015116 0.11354496 -14.960576 32.258499
3.3795118 0.10765128 -14.87843 32
3.8951201 0.20571856 -15.067348 33.022503
4.3198562 0.22117575 -14.890396 32.688831
4.8196831 0.2753441 -15.149066 31.003
5.3465991 0.32276765 -14.98898 31.010332
22.503548 0.17026913 -15.017351 33.713543
-1.3036975 0.61623639 -14.987405 32.421715
-1.0194303 0.70088285 -15.038795 29.472221
-0.6953907 0.51064634 -15.071127 29.5
2.478725 0.46632048 -14.990544 29.0035
22.384409 0.69621718 -15.168852 33.5
22.486485 0.59585631 -15.017773 32.752941
22.864861 0.4181771 -14.969054 31.5
-1.2841411 0.99968147 -14.989969 31.022728
-1.0785232 1.0139822 -15.059514 28.357143
-0.69967604 0.8535639 -15.062449 27.5
22.384178 1.1815846 -15.149685 31.5
22.487085 0.9978736 -14.997519 31.030556
22.864647 1.0228835 -14.913439 28.75
-1.312675 1.3877218 -14.990318 29.506054
-1.0979558 1.4467257 -15.05839 27.127272
-0.71011209 1.2815431 -15.059705 25
22.37797 1.4414154 -15.110595 28.166666
22.501017 1.3813188 -15.030486 29.805983
22.865774 1.513958 -14.880931 26.5
-1.3050648 1.8079681 -14.988963 28.235521
-1.1309555 1.8233054 -15.072411 25.102856
-0.71313524 1.7093142 -15.044275 22.5
20.611061 1.7276466 -14.863961 31.054501
20.992207 1.7827536 -14.84889 29.049061
21.406221 1.8267224 -15.016587 27.896606
21.774822 1.8660715 -15.121506 29.279785
22.309982 1.8444557 -15.112014 28.681818
22.480761 1.7985225 -15.032704 28.958822
-1.3016062 2.1828268 -14.960004 26.033442
-1.1114571 2.2267661 -15.050876 22.944445
-0.71663284 2.0541143 -15.039765 20.5
20.968369 2.0605602 -14.826519 24.0205
21.472027 2.0775213 -14.980234 27.630499
21.808247 2.1054406 -15.129446 29.4
22.258038 2.1055481 -15.124899 28.74
22.479097 2.067512 -14.978424 27.094872
-1.2833186 2.573844 -14.907125 21.43775
-1.1005011 2.6132352 -15.014188 19.826853
-0.70043898 2.4855697 -15.046365 18
-1.2781322 2.8940709 -14.883668 18.125
-1.0783129 3.0204804 -14.990314 16.373867
-0.7046001 3.0417631 -15.009392 14.75
22.473581 -1.6951313 -14.645304 39.023499
19.321312 -1.5429482 -14.669657 41.019001
22.294525 -1.3664119 -14.657514 40.2351
22.46278 -1.2088972 -14.776057 38
23.016035 -1.2431118 -14.615487 39
22.61628 -0.9658277 -14.637173 37.444099
22.995853 -0.94880211 -14.571198 37.666664
22.39126 -0.55632186 -14.777502 35
22.575272 -0.61204702 -14.623791 36.168739
22.979977 -0.46353805 -14.627699 35.416664
-1.3089094 -0.069014393 -14.486715 35.556999
-1.0383174 -0.064943172 -14.628417 34.574772
-0.64144379 -0.11015034 -14.618862 34.704666
-0.2098912 -0.073344804 -14.664821 34.349667
0.24154641 -0.072166838 -14.598639 34.455429
0.59861428 -0.056774724 -14.569964 34.187084
1.018136 -0.054559499 -14.579753 34.015167
1.3669571 -0.055697143 -14.503144 34.027
1.7930373 -0.055022851 -14.436099 34.011166
22.59099 -0.25439224 -14.690693 35.206402
22.922979 -0.142279 -14.61961 33.333332
-1.6556344 0.19901162 -14.507082 34.666664
-1.4130509 0.22950323 -14.609288 33.68803
-1.074615 0.12493379 -14.620571 33.036331
2.1464739 0.026351266 -14.769285 34.022247
2.6548443 0.056827828 -14.596625 34.024002
3.0954361 0.060956616 -14.446568 33.688663
3.3467278 0.1005805 -14.67568 32.806602
3.7676375 0.10726961 -14.572844 32.507999
4.2139421 0.15446709 -14.645194 32.679836
4.670774 0.19519043 -14.590299 32.351166
4.8995771 0.20955728 -14.53591 32.5205
5.5912008 0.27224845 -14.64278 31.002001
5.8508897 0.31393561 -14.650897 31.009666
22.593815 0.21244581 -14.677712 33.343834
23.014719 0.39175239 -14.477575 31.5
-1.662365 0.63881868 -14.50463 33
-1.4297732 0.61851406 -14.582556 32.322903
-1.0338356 0.65423667 -14.59059 29.200001
22.590794 0.63290405 -14.697424 31.427345
22.953976 0.40315297 -14.690729 31.5
-1.636508 0.92879272 -14.501102 31.75
-1.4115713 0.97146881 -14.600266 30.61154
-0.99599081 1.0163056 -14.622749 26.914286
22.587109 1.0354084 -14.648417 29.83025
22.970331 0.94093388 -14.563808 29
-1.6677513 1.4441565 -14.485228 30
-1.4235172 1.3825792 -14.603473 29.210033
-1.0675862 1.4384053 -14.616094 24.637501
19.782484 1.5832115 -14.426311 28.361502
20.358448 1.5870135 -14.514118 31.047001
22.563395 1.3975075 -14.662294 28.718332
22.952269 1.4865531 -14.6001 26.5
-1.642797 1.7553515 -14.442963 29.25
-1.4077071 1.8027509 -14.630445 27.68066
-1.0724771 1.7659333 -14.586416 22.65
19.271618 1.7845619 -14.44426 31.049999
19.826504 1.695622 -14.424869 27.032125
20.149519 1.7571964 -14.505112 28.59115
20.587828 1.7990495 -14.659797 27.819691
20.872591 1.833662 -14.776603 28.706665
22.566874 1.8359349 -14.636421 27.354237
22.880785 1.9488842 -14.618608 26.75
-1.6601849 2.2318382 -14.498434 27
-1.4193993 2.1860735 -14.621995 25.501411
-1.0592306 2.194756 -14.619175 20.083334
20.246916 2.0286465 -14.496199 28.290501
20.577642 2.0584381 -14.581919 26.4375
20.910339 2.0569768 -14.690516 27.636402
21.229984 2.0897586 -14.582958 27.0425
21.776371 2.1337676 -14.458858 26.53075
22.104553 2.1505623 -14.637739 28.0455
22.547485 2.1229331 -14.652165 24.90662
-1.4130747 2.569773 -14.569105 21.360937
-1.0052092 2.624511 -14.617682 17.291666
-1.3747234 2.9139192 -14.588489 17.289286
-0.94603586 2.9487216 -14.599397 15
17.911449 -1.6333954 -14.292248 43.028
22.710674 -1.6264998 -14.096394 41.023499
20.255547 -1.4925624 -14.01193 42.035
20.742977 -1.43871 -14.10817 40.017502
21.605019 -1.4240252 -14.107709 39.014
22.723785 -1.4796288 -14.276043 40.522247
22.732281 -0.98348832 -14.162631 37.433273
22.906965 -0.92778426 -14.132227 36.862858
22.731565 -0.60810733 -14.144741 35.900433
22.915806 -0.62583655 -14.167058 36.108002
-1.3160561 -0.10433108 -14.1463 34.752857
-1.0294049 -0.14567935 -14.22346 34.522251
-0.50276554 -0.16660516 -14.164667 34.832401
-0.13612573 -0.11598732 -14.098987 35.037666
0.57272452 -0.11801202 -14.214969 35.373333
1.1102116 -0.084144957 -14.257236 35.024002
1.4951921 -0.070070185 -14.292657 33.675831
1.7951096 -0.069594443 -14.184432 34.01939
2.2450624 -0.049166206 -14.146059 34.017803
2.6142535 -0.065700606 -14.171993 33
2.9157689 -0.064178124 -14.070301 33
22.742098 -0.24440058 -14.04291 35.714287
22.871939 -0.3909902 -14.050341 35
-1.6932329 0.17634329 -14.13191 34.023563
-1.4720492 0.20518412 -14.214821 33.313217
-1.1211542 0.2524468 -14.362613 31.555555
3.0525861 0.023913436 -14.382893 35.028
3.4665821 0.036262512 -14.256367 34.022167
3.7572315 0.050153386 -14.185555 33.687836
4.1770325 0.073930614 -14.199308 33.010101
4.591115 0.092319995 -14.20541 32.333332
5.1128521 0.15128732 -14.216194 32.345001
5.3739758 0.1747701 -14.132046 32.014
22.72896 0.21025893 -14.074377 33.627602
22.828619 0.11232835 -14.094494 29
-1.6553411 0.61771232 -14.117048 32.938099
-1.4936742 0.62062764 -14.241022 31.274286
-1.0104485 0.48607263 -14.331605 29.5
22.698387 0.61913502 -14.158984 32.213181
22.81316 0.64078695 -14.069408 28
-1.6504019 1.0045953 -14.096238 30.777779
-1.4971621 0.98111826 -14.235026 29.393333
-1.0322371 0.85044789 -14.27774 27.25
22.714594 0.96733016 -14.130174 30.298786
22.901802 1.1397913 -14.217495 27.5
-1.6451906 1.3984584 -14.099528 28.857214
-1.500332 1.3955642 -14.244815 28.032066
-1.006207 1.3014297 -14.341834 24.5
17.948399 1.5573585 -14.032692 26.028
18.392954 1.5780791 -14.038899 26.022499
18.612602 1.5534436 -14.140878 27.704
19.042742 1.5749896 -14.190817 28.425701
19.382404 1.5700796 -14.303798 27
19.685947 1.577656 -14.303468 31.057751
22.680099 1.3601667 -14.183288 29.187918
23.018803 1.467227 -14.398051 26.5
-1.6436344 1.7928668 -14.075673 26.666666
-1.4834915 1.8366343 -14.248347 25.751034
-1.0544317 1.6976724 -14.234452 22
18.730736 1.7345246 -14.059381 31.0555
19.061834 1.8087978 -14.075162 28.411776
19.40699 1.8289566 -14.202499 26.662031
19.80271 1.8498684 -14.328291 27.988745
22.650305 1.8075 -14.199642 28.191416
23.011021 1.8948667 -14.345634 24.5
-1.64363 2.087667 -14.106291 27
-1.445519 2.17975 -14.145196 23.824768
-1.0624012 2.155369 -14.18988 19.714285
19.080744 2.0092759 -14.025364 29.547501
19.749228 2.0197132 -14.284968 29.046333
20.33408 2.0891237 -14.181164 25.53175
20.505428 2.0565839 -14.161745 27.043999
20.961948 2.1129935 -14.13375 24.55175
21.313068 2.1111867 -14.257229 28.046
21.828064 2.1378193 -14.202156 25.028334
22.292322 2.1719809 -14.235958 26.695833
22.536407 2.1730707 -14.254089 24.51075
-1.6196716 2.6005054 -14.062634 16.5
-1.4590397 2.5403357 -14.175336 20.269876
-1.0171204 2.5235467 -14.304429 17
-1.3482182 2.8755171 -14.182534 16.424416
-1.0546041 2.8829696 -14.232152 14.75
18.21335 -1.569209 -13.957729 43.022499
19.267218 -1.4826055 -13.707272 41.522499
20.330574 -1.4127448 -13.72542 40.015999
20.738861 -1.4151452 -13.685926 41.022499
22.385105 -1.2597569 -13.725682 37.012501
22.738394 -1.0613827 -13.77843 39.558636
22.859097 -0.99991769 -13.796497 37.567947
22.775585 -0.54807937 -13.86544 37.204151
22.866076 -0.58445674 -13.780125 36.102566
-1.6855048 -0.080900863 -13.666903 34.261627
-1.385168 -0.12761366 -13.813944 35.063374
-1.0488375 -0.17344743 -13.854527 34.520302
-0.58078051 -0.21416496 -13.800447 35.888496
-0.19107305 -0.21844004 -13.830335 34.175999
0.13291042 -0.20171253 -13.815622 34.895622
0.55483335 -0.19030476 -13.730115 35.187252
1.0066919 -0.19535863 -13.710987 34.511002
1.3731571 -0.15745689 -13.73696 35.355499
1.9404197 -0.11839717 -13.801273 36.029499
2.2384553 -0.094888091 -13.946047 34.413902
2.591763 -0.07709074 -13.852206 34.526314
3.0444407 -0.055883169 -13.820214 34.305355
3.4067025 -0.06222707 -13.733778 33.6054
3.6447265 -0.053319883 -13.708899 34.010166
4.0595136 -0.047028881 -13.634693 34.014999
4.4761748 -0.0026002824 -13.721169 33.012501
22.77763 -0.16165921 -13.839165 35
22.84767 -0.19204347 -13.742776 34.634922
-1.7099713 0.19553979 -13.833787 33.847309
-1.5077754 0.17858924 -13.814996 32.271427
-1.1710873 0.15728514 -13.90668 31.5
3.9527869 0.017523631 -13.995606 35.027
4.2423983 0.0077622756 -13.886849 34.019753
4.6180339 0.055395503 -13.898412 33.682667
4.9658656 0.047493163 -13.74166 33.682331
5.4260292 0.085797966 -13.815262 32.333332
5.7588797 0.29898781 -13.794661 31.011
22.775507 0.18681544 -13.867064 34.166668
22.853033 0.21199204 -13.754395 32.901516
-1.718255 0.61464304 -13.814763 32.102871
-1.4779679 0.6460517 -13.835307 29.714285
-1.1617084 0.45783874 -13.925314 29.6
22.767904 0.6012336 -13.833722 32.372711
22.849985 0.60528785 -13.755887 31.492062
-2.0177951 1.082716 -13.897738 28.088499
-1.7079999 1.0052257 -13.818854 30.253332
-1.4701735 1.0279402 -13.847514 27.395834
-1.1531415 0.8714267 -13.96928 27
22.760153 1.0362715 -13.835004 31.04273
22.847216 1.0114653 -13.74162 29.857143
-2.0322452 1.5629473 -13.899191 27.088499
-1.7115706 1.3843205 -13.825769 28.53376
-1.432322 1.4193563 -13.772772 23.975
-1.1587033 1.2676631 -13.966452 24.5
17.394354 1.5344942 -13.74771 26.0285
17.724037 1.5370659 -13.716607 28.040335
18.183174 1.5384431 -13.774879 30.050877
18.545984 1.556725 -13.875175 29.790874
22.746376 1.4254916 -13.83184 29.350681
22.83976 1.3865278 -13.739447 28.85
-1.7125081 1.8006616 -13.81561 27.068829
-1.4761877 1.8437577 -13.778194 21.534721
-1.1643963 1.6659842 -13.969684 22
17.944981 1.7854869 -13.683161 29.805626
18.200096 1.7912179 -13.690446 27.841097
18.600012 1.8221539 -13.847054 28.731781
18.89921 1.8290169 -13.948667 26.894714
22.750568 1.8149194 -13.800488 27.948662
22.839706 1.7676911 -13.708656 27.842106
36.742519 1.6406522 -13.620121 26.011499
-1.6893125 2.2000337 -13.807838 23.290688
-1.4796197 2.2108033 -13.902 20.866768
-1.1804786 2.0726964 -13.921698 19.4
19.421606 2.0450182 -13.861027 27.04525
19.817961 2.0460033 -13.783148 27.241898
20.337463 2.0937135 -13.638412 23.0205
20.571686 2.0762169 -13.837207 27.039499
20.952787 2.0902488 -13.838544 26.285126
21.548143 2.1267571 -13.78496 26.0425
21.827049 2.1628106 -13.774953 23.023169
22.272392 2.1947927 -13.66414 29.045
22.708168 2.1315258 -13.753108 26.764238
22.846136 2.0986371 -13.692924 25.139999
-1.6700463 2.557508 -13.85271 20.50214
-1.458374 2.6588802 -13.851273 17.458332
-1.1998234 2.4522908 -13.870514 17
-1.6823186 2.8685055 -13.842183 16.666666
-1.4682229 2.9193974 -13.866086 14.5
-1.1813669 2.8227746 -13.887042 14.666667
18.128319 -1.5246189 -13.419281 42.019501
18.493641 -1.532056 -13.26842 43.036499
18.968651 -1.4844975 -13.384888 42.029999
22.228996 -1.3324027 -13.310591 40.021
22.643839 -1.2620796 -13.395134 39.363499
22.57493 -1.1712728 -13.360279 41.041
22.918602 -0.99510533 -13.382071 37.550358
23.260561 -0.9116531 -13.417747 37.5
22.906324 -0.60845482 -13.422781 36.295834
23.25757 -0.53353196 -13.327098 35.666668
-1.759577 -0.10637381 -13.360441 34.7831
-1.4466815 -0.16725671 -13.396975 35.227207
-0.9859308 -0.2899006 -13.378456 36.273251
-0.46005976 -0.26892993 -13.355064 35.788002
-0.16930735 -0.23054516 -13.514018 36.535
0.068080187 -0.23405251 -13.546845 36.032249
0.58961523 -0.22279425 -13.476535 35.531124
