# .PCD v0.7 - Point Cloud Data file format
VERSION 0.7
FIELDS x y z
SIZE 4 4 4
TYPE F F F
COUNT 1 1 1
WIDTH 1524
HEIGHT 1
VIEWPOINT 0 0 0 1 0 0 0
POINTS 1524
DATA ascii
-0.55225849 1.793655 -0.20537585
-2.471508 1.817023 -0.30882835
-2.3596773 1.9401478 -0.33302963
-0.92493343 1.8302968 -0.35038868
-0.42303371 1.892835 -0.23315644
2.4892383 1.9619718 -0.32896072
4.8669796 1.9376866 -0.26712167
5.4799452 1.8568633 -0.21526241
8.9038496 1.9005992 -0.39706737
12.900879 1.9964726 -0.27583075
16.916819 1.9332649 -0.237431
17.808031 1.9492921 -0.37773275
21.10895 1.9784617 -0.29652765
25.975801 1.9043592 -0.30804011
26.052582 1.9176822 -0.32551849
-2.462975 2.0724702 -0.23204696
-2.37094 2.0283265 -0.20820773
-0.3330698 2.0383024 -0.33528292
4.8688254 2.0975511 -0.33044639
8.8903809 2.1175838 -0.37024707
12.912032 2.1525311 -0.32077533
16.74748 2.1272271 -0.26632929
16.874729 2.1377959 -0.21767908
21.048046 2.1359618 -0.33141398
-2.4510918 2.2475755 -0.30128253
4.8529158 2.2071118 -0.21298456
5.5425119 2.3379934 -0.29779339
12.885485 2.3165817 -0.26720634
16.744968 2.2996254 -0.25760651
20.871075 2.320209 -0.24717283
21.022987 2.2125261 -0.35273647
-2.4550848 -1.7853941 -0.091881633
-2.4949551 -1.4672208 -0.12593657
-2.3568778 -1.5094455 -0.093692899
-2.1156597 -1.5095123 -0.041711807
-1.7184529 -1.4870892 -0.13894677
-1.3110247 -1.4833243 -0.10535419
3.1936941 -1.4602309 -0.17424262
4.3215199 -1.4597225 -0.079544187
4.9333305 -1.4482474 -0.082124591
21.580853 -1.4138564 -0.099687338
-2.6069796 -1.292609 -0.040658712
-2.4558637 -1.3139527 -0.10810637
21.565739 -1.3532598 -0.14435625
21.698055 -1.2538803 -0.17247467
-2.451673 -1.1298025 -0.093591094
20.980507 -1.0432783 -0.059888363
21.025764 -1.0528991 -0.070905685
-2.4499869 -0.91914332 -0.078805447
20.983234 -0.80503857 -0.084436893
21.493814 -0.8813802 -0.19007564
21.685701 -0.83729595 -0.14659595
21.970943 -0.8701117 -0.16899681
-2.4365051 -0.74034095 -0.12921679
21.039391 -0.72794372 -0.098011494
21.999817 -0.75239134 -0.094545841
22.114937 -0.68953615 -0.11650562
22.38076 -0.62025917 -0.18959141
-2.4370933 -0.53206939 -0.16545868
21.070656 -0.52059698 -0.0436728
21.301424 -0.59273368 -0.16185617
21.710928 -0.51813358 -0.15954971
21.831718 -0.59955794 -0.16040707
22.082176 -0.51479554 -0.13697052
22.376637 -0.54799771 -0.067188263
-2.4473565 -0.29644462 -0.07212925
26.077652 -0.2780363 -0.12829329
-2.4546492 -0.097614169 -0.082509041
26.077385 -0.17327274 -0.00013208389
-2.4515102 0.11251608 -0.070743203
25.837261 0.057782736 -0.042697549
-2.4682934 0.30293867 -0.11032522
25.944899 0.28439003 -0.040649533
-2.4497905 0.48540607 -0.088045977
-2.4501839 0.68585372 -0.10783815
-2.454056 0.92135382 -0.12297913
26.033224 0.8598851 -0.16862965
-2.4601948 1.1290374 -0.069585025
-0.51181173 1.1119192 -0.10079143
2.493232 1.1081237 -0.091866754
16.648024 1.189 -0.15722132
17.511141 1.194014 -0.079647303
17.608456 1.190014 -0.084676743
17.864752 1.1957227 -0.030282974
-2.4510331 1.3072673 -0.15050983
16.593189 1.3210856 -0.15247676
16.655024 1.2984626 -0.17217071
16.967989 1.3366727 -0.14308961
17.064217 1.3298285 -0.12140238
17.346413 1.3034548 -0.13735461
17.50563 1.2427738 -0.071882963
17.708477 1.2912048 -0.079787925
17.881401 1.3016709 -0.03084702
18.069939 1.2868257 -0.012800902
-2.4455736 1.4868611 -0.10925035
17.672255 1.4044708 -0.062099457
-2.5331435 1.6924051 -0.08779332
-0.57836437 1.7976588 -0.092718899
-2.5286837 1.9321328 -0.020290375
4.838891 1.9095228 -0.081496626
5.3831863 1.8341277 -0.030197144
5.4831047 1.9951189 -0.024501801
12.913624 1.8941419 -0.017397404
13.547568 1.8656237 -0.11446571
16.903372 1.9809687 -0.12417412
21.084576 1.988112 -0.1089282
25.898682 1.9443153 -0.11415815
-2.4367275 2.0080383 -0.086135983
4.8454275 2.0949755 -0.16080999
8.8716736 2.170949 -0.17246455
9.4417725 2.0999138 -0.002307415
12.896986 2.1313262 -0.106628
16.910133 2.1266501 -0.1532037
21.019775 2.0075407 -0.17780352
25.878662 2.0858235 -0.079096824
-2.3876464 2.2344673 -0.09499681
4.8320823 2.2069108 -0.15125585
5.4912071 2.3871841 -0.0019106865
8.831933 2.3158712 -0.13268864
12.840777 2.3483572 -0.079898797
16.874325 2.2511482 -0.10597634
21.042686 2.3036222 -0.12239924
25.902479 2.2345493 -0.12150224
12.44418 2.4278708 -0.15560508
12.853655 2.4298165 -0.15834761
16.878429 2.4054942 -0.039589763
21.05018 2.4669895 -0.073564529
25.949471 2.4996924 -0.11392617
-2.6481509 -1.4836606 0.12929678
-2.4563112 -1.4897981 0.071442842
-2.0801201 -1.5021466 0.082636714
3.0790982 -1.4802772 0.00023698807
3.7403169 -1.4836719 0.078112334
3.9368358 -1.4782906 0.0044049257
4.1600237 -1.4767239 0.061058819
4.7521563 -1.4551526 0.17018449
4.9778013 -1.4525107 0.10718288
5.0870876 -1.4537686 0.111365
-2.4727192 -1.3102572 0.095850706
-2.4700885 -1.0902619 0.12267033
21.295359 -1.1903282 0.027443647
-2.4658301 -0.90723765 0.06456466
21.075024 -0.91285664 0.060194373
26.182926 -0.8211897 0.0024163723
-2.4724576 -0.6577754 0.077063322
21.083677 -0.66043359 0.08237958
26.090712 -0.71889102 0.14972496
-2.4643285 -0.52628368 0.11905593
26.021189 -0.50385839 0.0057198629
-2.4913759 -0.32602894 0.13636935
26.097466 -0.33415511 0.067931175
-2.465169 -0.04199215 0.10651922
25.973026 -0.025555477 0.07876873
26.148735 -0.10686235 0.05085206
-2.4670019 0.12028735 0.10187212
26.023018 0.1177602 0.16528845
-2.4874892 0.31649384 0.084063329
25.913563 0.25757039 0.048059806
-2.4802859 0.49295911 0.091103032
25.909065 0.59905368 0.048171014
-2.4806828 0.71988773 0.10868248
-2.4899099 0.90119523 0.099565223
25.908287 0.94751394 0.062025577
-2.4883814 1.1129973 0.09380845
-0.54695755 1.0858536 0.044175465
-2.5046711 1.3169551 0.085502841
-0.10357428 1.2849879 0.18917251
10.671658 1.3597398 0.11501181
10.820256 1.3696829 0.10366678
18.056122 1.3129574 0.087440304
25.909136 1.2946022 0.075858861
-2.5145347 1.5214649 0.098629318
10.760447 1.5145967 0.13932697
17.966616 1.4624699 0.14131916
18.061644 1.4500922 0.13394061
-2.601717 1.6529562 0.031005383
-2.504688 1.6052266 0.18775725
2.1678648 1.7839035 0.038754225
25.912045 1.638469 0.087118059
-0.47951663 1.8909569 0.067790598
2.433713 1.9742546 0.08975929
4.7987862 1.9805325 0.1235764
4.8197145 1.8815849 0.14064661
5.501596 1.8628268 0.19167703
8.8507318 1.8748899 0.10269326
9.3946705 1.8761746 0.079698205
12.90311 1.9354696 0.038179278
16.757805 1.9877275 0.14847952
21.388802 1.9347011 0.021203995
-2.5149236 2.0685492 0.17873001
-0.48399305 2.1326191 0.03798151
4.7846565 2.1880841 0.1784358
4.829433 2.0578187 0.095054708
12.789138 2.1467788 0.12498391
12.868397 2.072711 0.13550226
16.762274 2.1409507 0.15343541
16.82749 2.1426635 0.17929327
20.981173 2.0220892 0.065417171
25.794308 2.1476121 0.10707748
25.854263 2.0212953 0.13417578
26.053865 2.1484051 0.17972016
-2.5345259 2.2123673 0.0034502745
-0.49529457 2.2056024 0.11155558
4.8184114 2.2041817 0.039034605
8.8593912 2.323292 0.156883
12.635323 2.3934593 0.0070534945
12.846627 2.3128202 0.12184298
20.971281 2.2311666 0.074687004
25.847313 2.2341642 0.15348053
20.879204 2.4655304 0.058425263
21.006958 2.465683 0.068399429
-2.5521555 -1.492751 0.24693131
-2.3254547 -1.5549648 0.34807706
-2.193095 -1.5049549 0.27419734
-1.9835737 -1.508184 0.21882987
-1.1854627 -1.5049917 0.21329188
3.7841411 -1.5048041 0.36064756
3.8402145 -1.4971569 0.38393092
4.1137695 -1.4634368 0.25521582
4.2462988 -1.4697093 0.34078389
4.6239595 -1.4662433 0.3748709
4.8803506 -1.4607843 0.38380989
-2.6530828 -1.3777229 0.24483514
-2.4963446 -1.2844219 0.27327326
-2.6157038 -1.0171139 0.23589444
-2.5029302 -1.1326358 0.2845374
-2.6156621 -0.97532749 0.26101124
-2.5081098 -0.92473 0.35750642
-2.4873695 -0.7273894 0.31332648
-2.5002549 -0.48115993 0.33321953
26.095707 -0.51473057 0.29615843
-2.5117409 -0.33133325 0.37093058
-2.4810853 -0.11125994 0.28300405
25.990044 -0.068264075 0.30982804
-2.5046611 0.13248712 0.26547873
25.897469 0.0016776696 0.29597712
26.073669 0.073860034 0.20666793
-2.5182858 0.28507519 0.23218584
25.993301 0.38201413 0.26333523
-2.5104897 0.49262267 0.29594159
25.960043 0.51465952 0.31509638
-2.5175664 0.71401149 0.33385214
-2.5016057 0.91370839 0.27036044
25.97369 0.8595823 0.32300019
-2.5110605 1.1226239 0.29553795
-0.51898807 1.0927817 0.23113112
10.871778 1.1770697 0.2220974
25.943483 1.0808508 0.32463133
-2.5197456 1.3045167 0.3245368
-0.075236768 1.3163939 0.31593823
10.612701 1.3944697 0.2090404
10.906634 1.371339 0.20276374
18.061308 1.3250546 0.24328113
25.975403 1.3162049 0.3547014
-2.6361103 1.4386489 0.35339737
-2.4891043 1.5110153 0.2991721
10.776018 1.4537472 0.2542572
10.83355 1.500245 0.20646101
17.990942 1.4235002 0.27481365
18.138027 1.4180371 0.31439805
-2.5103524 1.6339496 0.29840067
25.971573 1.7462338 0.37339568
-2.6400795 1.856985 0.39552021
-0.46130896 1.9693964 0.34126309
4.7711387 1.931666 0.31492844
4.8008876 1.8404731 0.36607647
5.3900414 1.8278298 0.26423836
5.4217653 1.954729 0.35128331
12.728718 1.8542948 0.30013728
12.854001 1.8947142 0.2687659
16.816175 1.8757982 0.36823916
20.895248 1.9880931 0.32405776
21.01297 1.9398654 0.25858164
25.979324 1.8564833 0.29909363
-0.48412219 2.1101799 0.31603882
4.791749 2.0656338 0.2875061
5.3954582 2.1061907 0.37703228
5.4755335 2.1352394 0.21224284
12.782548 2.0006819 0.20154274
12.855098 2.0849817 0.22322893
16.806173 2.0077085 0.36763465
20.96257 2.0451298 0.24354963
25.875061 2.0902388 0.30175826
-2.5491114 2.2390766 0.3874141
8.7995663 2.3007348 0.29411241
12.564315 2.3936534 0.3761611
12.752501 2.3625884 0.33059248
12.83181 2.2915082 0.23069149
13.501764 2.2551835 0.23992395
20.980478 2.3141632 0.29688513
25.675892 2.2343199 0.26057911
25.834641 2.226311 0.35715294
20.959692 2.4446309 0.23271275
26.028065 2.4118321 0.33735156
-2.56952 -1.8115155 0.47029769
-2.672847 -1.4772142 0.53554815
-2.535228 -1.4618244 0.49660975
-1.9459336 -1.5054511 0.49170208
-1.3601241 -1.4991654 0.4954389
3.4983768 -1.4824461 0.51846552
3.6597633 -1.5021635 0.52937305
3.9042959 -1.4808862 0.50517213
4.1208887 -1.4796236 0.47642502
4.3040528 -1.4938017 0.49543762
4.4726305 -1.4745585 0.45027176
5.3514886 -1.4841635 0.54721177
5.7470446 -1.4737024 0.56205761
-2.6546931 -1.3460971 0.43858707
-2.5203648 -1.2961239 0.47487369
-2.52527 -1.1042274 0.49488467
-2.5164592 -0.93971348 0.41098094
20.754383 -0.93289399 0.57526445
26.039673 -0.80381769 0.56559038
-2.6148882 -0.78452682 0.45400774
-2.5184259 -0.75817519 0.50311774
-2.5259647 -0.50166953 0.49398327
-2.5126741 -0.28946209 0.42646718
25.98753 -0.28281111 0.44794941
-2.5271122 -0.084221266 0.50961304
-2.5188761 0.10826691 0.45520458
25.932415 0.045435145 0.42375863
-2.5455778 0.30447066 0.48326525
25.907761 0.30984363 0.41725612
-2.5565772 0.50208539 0.50466001
-2.5447109 0.69008732 0.46281743
25.899193 0.70168346 0.40960538
-2.5375388 0.93063051 0.46431527
-2.535733 1.1173247 0.50020194
25.89249 1.0993437 0.42435873
-2.6559396 1.383643 0.5236913
-2.5370438 1.2836328 0.51045465
10.813805 1.3428056 0.46157578
-2.6573949 1.5775573 0.57728279
-2.5419428 1.5143492 0.51421911
10.631207 1.4277419 0.42362761
25.88744 1.4952545 0.43632329
-2.6564074 1.7313594 0.52521455
-2.5469913 1.6821152 0.49062631
-0.95421982 1.7930223 0.57773125
8.8341999 1.7936981 0.47064471
-2.5177066 1.892819 0.473746
-0.50028038 1.917472 0.45857975
4.7731686 1.9464542 0.49138013
9.0500145 1.8165772 0.55245733
12.836426 1.9195012 0.44807005
20.835779 1.9485004 0.56179786
21.112385 1.8994312 0.56097174
-2.5529778 2.0347638 0.46444821
-2.3931544 2.0953248 0.58788621
-0.52987862 2.0639682 0.44143593
4.7599568 2.0846384 0.50694931
5.3333697 2.0332894 0.57365775
5.4572434 2.0964158 0.50131547
8.6833534 2.0393796 0.506643
16.72187 2.0482016 0.4701643
20.95153 2.1183479 0.42186952
5.4230709 2.2651632 0.50159478
8.6137991 2.2574592 0.48245347
12.786696 2.3772411 0.5153904
12.824823 2.3128166 0.5479424
16.779884 2.2641904 0.50498736
20.868406 2.3701997 0.47435194
20.839111 2.4159005 0.44548556
25.868086 2.4210129 0.52293873
-2.5216606 -1.5107946 0.68284911
-2.3291516 -1.5448961 0.66003537
-2.1450257 -1.4986718 0.6550808
-1.9308569 -1.5089563 0.63314128
-1.404967 -1.5223937 0.70585108
-1.3661325 -1.5178661 0.71484041
3.316762 -1.4940102 0.72669154
3.6933846 -1.5040154 0.73423958
4.3136439 -1.4854783 0.70716476
4.446281 -1.4758792 0.6921863
5.7786527 -1.4983507 0.73017818
25.936972 -1.405496 0.68423128
-2.6756191 -1.2590867 0.66464221
-2.5507784 -1.3044853 0.69357425
25.913651 -1.2675499 0.64287573
-2.540936 -1.1018329 0.70177472
-2.5368464 -0.90055287 0.6720987
20.766718 -0.93141848 0.62941527
25.903954 -0.94294894 0.74133557
26.066582 -0.85038227 0.79249501
-2.5472932 -0.64907849 0.64261031
20.806658 -0.70720899 0.76261592
21.212461 -0.67028093 0.7847718
25.942904 -0.69312119 0.74684149
-2.5427947 -0.53205776 0.66816092
25.988789 -0.40157411 0.60274678
-2.5552654 -0.26939735 0.70193797
25.749426 -0.29575443 0.70917869
25.855305 -0.23904173 0.74015683
-2.5467775 -0.11187308 0.6863898
25.978668 -0.091931403 0.74837255
-2.555069 0.098230295 0.68800926
-2.5520172 0.24900517 0.69809759
-2.5527279 0.47348037 0.73518533
-2.5676427 0.71966928 0.73817116
-2.5621662 0.9087292 0.7254011
25.816868 0.91213274 0.75307584
-2.5641377 1.1171631 0.71751535
-2.6565008 1.2345994 0.66646773
-2.5643804 1.2909368 0.71847337
10.786638 1.3439457 0.64521337
25.817963 1.2578617 0.76636231
-2.6608632 1.4809272 0.69093019
-2.5401025 1.4618862 0.65991151
-2.538146 1.7054819 0.68869036
-0.71554852 1.8028141 0.77300453
-0.53842294 1.9074181 0.77470535
4.752625 1.9609743 0.72194272
4.9906597 1.8057482 0.69622707
12.825611 1.9430838 0.64296103
20.903641 1.8998429 0.76444304
25.869032 1.9373176 0.79248905
-0.52999496 2.1392593 0.78387332
4.7604661 2.0084069 0.63533783
5.3795276 2.1770132 0.61564374
8.6124496 2.0387855 0.74268496
12.771106 2.1336677 0.70630598
-0.53018355 2.2583327 0.75973618
12.696993 2.3385301 0.77701402
12.823066 2.2819517 0.69461155
16.782352 2.2106359 0.76008391
20.792816 2.3017173 0.61379194
25.783571 2.2904706 0.71660936
-2.685508 -1.4678586 0.89812583
-2.5734119 -1.5016639 0.91357344
-2.138412 -1.5184798 0.84921408
-1.9272418 -1.5062935 0.88989782
-1.4717948 -1.5362191 0.83355629
-1.2457039 -1.5314496 0.89671654
3.180799 -1.5017247 0.93652248
3.278456 -1.5091262 0.92066789
3.8846767 -1.5092589 0.94447184
4.0315094 -1.5014961 0.98496515
4.4912243 -1.4899641 0.90573382
4.728075 -1.4851136 0.9330585
5.3666334 -1.4980383 0.97526801
6.1772857 -1.4745388 0.80062997
6.2525849 -1.5000138 0.96270812
-2.569802 -1.3316784 0.92738789
20.796925 -1.2648581 0.92781925
-2.6428597 -1.1626574 0.91601849
-2.5695872 -1.1102462 0.93421394
20.81526 -1.1814692 0.86031151
-2.6747656 -0.95873314 0.86835492
-2.564564 -0.95079005 0.89255589
-2.6136675 -0.796996 0.98757601
-2.5699406 -0.75071138 0.8989616
21.214096 -0.7562421 0.82593203
25.894257 -0.62440711 0.83925587
26.018755 -0.71461779 0.87580419
-2.6896291 -0.52460802 0.94458055
-2.5757954 -0.4838697 0.95102239
25.848774 -0.50723743 0.88434613
-2.6371737 -0.31605214 0.9267022
25.757996 -0.20096144 0.84638834
25.924326 -0.30661654 0.85033786
-2.6011572 -0.072809517 0.9689846
-2.5857279 -0.091612905 0.95535851
-2.5603814 0.084051579 0.90378022
-2.5718441 0.36419284 0.84195876
-2.6035538 0.4773106 0.97158909
-2.581111 0.48907545 0.9024086
25.824697 0.46380222 0.91425908
-2.6007087 0.75407887 0.94767237
-2.5748484 0.71558893 0.85621339
-2.5703211 0.8767665 0.87902969
-2.6300955 1.1405686 0.91441751
-2.5867391 1.0875365 0.929901
-2.6507609 1.2926413 0.94068319
-2.5902214 1.3144199 0.88221192
-2.6359432 1.4405954 0.89915609
-2.5723026 1.4858006 0.856857
-2.6399395 1.6850318 0.90006858
-2.5587957 1.6422094 0.88699037
-0.59750462 1.7782179 0.81481552
25.837479 1.6768757 0.94787419
-0.70469761 1.9757981 0.87863731
-0.52417064 1.8084868 0.80177557
-0.39733791 1.8455039 0.83911729
5.425355 1.9019922 0.86272627
8.7189751 1.924341 0.97934687
12.761984 1.8269912 0.93831158
16.677475 1.9631619 0.85636407
20.812828 1.9971181 0.96121991
25.773533 1.9767382 0.85627604
25.930264 1.9113016 0.87510526
-0.50632447 2.1202056 0.83122224
4.7094722 2.0677235 0.95765233
5.3667316 2.1048317 0.93309736
5.4256215 2.030689 0.83742458
8.6810446 2.0491381 0.96882546
20.761108 2.1106682 0.89566028
20.8339 2.092351 0.91829169
-0.55542564 2.2090781 0.808442
12.724002 2.3594522 0.91088647
20.811607 2.3583577 0.97284496
25.775002 2.3601751 0.9011488
20.764942 2.4372668 0.94908035
-2.6569583 -1.5093107 1.1243854
-2.5869112 -1.4913368 1.1423277
-2.3866017 -1.5325904 1.0412047
-1.9889421 -1.5351698 1.1757606
-1.3502311 -1.533047 1.001245
3.9359598 -1.5089104 1.1525486
4.3916121 -1.489852 1.0402867
4.5764184 -1.4859942 1.0970652
5.2657843 -1.4918237 1.0628639
5.6176567 -1.5084083 1.1367265
-2.6430814 -1.2792811 1.1364732
-2.5827932 -1.2396966 1.1121869
4.3886991 -1.3487552 1.1899214
20.85013 -1.2989467 1.1771576
-2.6501024 -1.0863187 1.1290399
-2.5826573 -1.1126015 1.0687011
20.684845 -1.180855 1.0550184
20.827358 -1.1187544 1.0573207
21.078266 -1.1796311 1.0862706
-2.6103029 -0.94385082 1.117762
20.851326 -0.87575209 1.0775528
25.883194 -0.98362076 1.1492829
-2.6111834 -0.69311076 1.1205776
-2.577584 -0.66470534 1.0894543
-2.5736115 -0.53845692 1.0224662
25.991482 -0.51017344 1.1309156
-2.6065245 -0.34987158 1.0660425
-2.5792482 -0.31502405 1.0358877
-2.6054764 -0.13958195 1.0700641
25.7467 -0.027894385 1.0089493
25.842957 -0.020242456 1.1588546
-2.6019726 0.14465287 1.0018516
25.785763 0.0061855093 1.1684597
-2.6042666 0.2984511 1.0406337
-2.571485 0.22621325 1.0181425
25.80209 0.21931475 1.1462191
-2.605967 0.52875435 1.0197561
-2.5732133 0.47027159 1.0315728
25.745924 0.54120338 1.0200715
-2.6178076 0.71446627 1.0973644
-2.5812459 0.67378056 1.0141153
-2.6276441 0.90954918 1.1258981
-2.5952742 0.97023684 1.1371598
25.73101 0.91649038 1.0349538
-2.6258101 1.0855162 1.083739
-2.5918767 1.1538489 1.1395254
-2.6385779 1.2731677 1.1177065
25.73522 1.290989 1.0490818
-2.6246934 1.5581863 1.0816905
-2.5625341 1.488328 1.1216562
25.806805 1.4234766 1.188347
-2.750988 1.6851007 1.164221
25.740639 1.6699159 1.0662191
4.6935859 1.8911915 1.0212882
5.3591423 1.8973393 1.1695275
8.672637 1.9090279 1.0424045
12.767916 1.8207874 1.0361338
12.839693 1.8469133 1.017783
25.748194 1.8089681 1.0338571
25.809353 1.9266226 1.1318247
8.6703014 2.125674 1.0010191
20.706104 2.0382667 1.0444201
25.889782 2.1917472 1.0987532
5.3867655 2.2966337 1.1750652
8.5799217 2.2908623 1.1310638
8.6068258 2.3264346 1.1416427
12.689064 2.2931223 1.0594817
20.752792 2.253448 1.0313325
20.879429 2.3106239 1.0728939
25.895056 2.3270729 1.1086109
-2.6657336 -1.4838358 1.2923801
-2.3963854 -1.5525503 1.2352871
-1.9680516 -1.5383687 1.2068863
3.7923725 -1.5381703 1.3795547
3.9078374 -1.5328283 1.2933881
4.1496081 -1.5303531 1.3040909
4.3909845 -1.511694 1.2707336
4.4874415 -1.4376459 1.3599676
4.6930437 -1.4108557 1.3116652
-2.639251 -1.3140516 1.280738
4.4737687 -1.3123384 1.3516434
4.6835866 -1.3643345 1.3193189
5.3191495 -1.3057712 1.3091116
5.526998 -1.3787169 1.3925574
20.832384 -1.2674568 1.2341714
-2.6261797 -1.1006379 1.3102689
-2.5963199 -1.0121123 1.2545238
4.3666811 -1.1784843 1.3429806
4.4793634 -1.0913973 1.3344028
5.4673157 -1.1063129 1.3934072
20.700104 -1.1408666 1.2679336
20.87578 -1.1361743 1.3301089
25.850321 -1.1328689 1.2850318
-2.6362295 -0.90912288 1.2758932
4.3786454 -0.84499037 1.3193095
4.4674177 -0.89742517 1.3388925
5.2926431 -0.82948542 1.3167588
20.70406 -0.94967771 1.3321958
20.935787 -0.88768387 1.323225
-2.6330767 -0.74116862 1.3820581
4.3744106 -0.62708509 1.3217711
4.4627538 -0.67670017 1.3652259
5.3454714 -0.75694489 1.2947937
20.854328 -0.79655093 1.2288523
-2.7060025 -0.50064021 1.3444456
-2.5856249 -0.43697852 1.2232809
4.3864341 -0.40521449 1.30179
4.4875555 -0.50611585 1.3693962
4.7132955 -0.46031952 1.3370236
4.802856 -0.52988696 1.3781997
5.284914 -0.48859429 1.3260298
25.871567 -0.43162104 1.2602714
-2.5999618 -0.34022883 1.2063951
4.5047898 -0.29990378 1.3544116
4.6506634 -0.30771729 1.3368053
4.8680258 -0.32883912 1.3563019
5.018744 -0.30572599 1.3791852
5.2865071 -0.3140882 1.3586307
25.911808 -0.26681387 1.3101501
-2.6349547 -0.13113378 1.3172282
4.3972359 -0.019637145 1.3439729
4.5201259 -0.097736798 1.3465937
4.6428366 -0.079229817 1.3633137
4.8960314 -0.12169325 1.3637085
5.2659521 -0.1247587 1.311747
25.775326 -0.1236206 1.2819186
-2.6316469 0.027324915 1.3375845
4.3628521 0.10086817 1.3885152
4.5179453 0.096605256 1.3706276
4.7029662 0.10668491 1.3684762
4.8446655 0.077905893 1.349001
5.0682335 0.092132315 1.3471115
-2.6538765 0.26323771 1.2784905
-2.5956287 0.36706227 1.2282214
4.3837633 0.29328316 1.3415891
4.48985 0.27908012 1.3592392
4.6246247 0.22565202 1.3894029
4.8272285 0.25463155 1.3843775
5.0241184 0.21382226 1.3495638
5.2741675 0.22954121 1.3733572
-2.6577759 0.52377701 1.3247541
4.4654346 0.48773578 1.3381627
-2.6369526 0.70763361 1.3074708
4.4173007 0.70112193 1.2951128
-2.6246243 0.93547618 1.2930907
4.385623 0.85518217 1.3152212
4.5074773 0.88195354 1.3451884
-2.642205 1.0921049 1.3033583
4.4753404 1.0942506 1.313381
-2.6343307 1.2998172 1.3059849
-2.6936541 1.5003986 1.3388492
-2.5909054 1.5305378 1.2012695
-2.6848123 1.6393192 1.2353973
8.6626301 1.7859631 1.2795063
3.766788 1.9338782 1.3850998
4.6769524 1.8443749 1.3181298
5.3208599 1.8838172 1.3387414
25.687546 1.8981595 1.3070645
3.8361473 2.0393777 1.3950785
5.348568 2.0569196 1.273231
12.726277 2.148391 1.3347135
25.581284 2.0547719 1.3404213
5.3824043 2.2091618 1.3119543
12.673395 2.3280587 1.3210368
20.837337 2.3723836 1.2973235
25.737793 2.3620291 1.2203642
20.819744 2.406631 1.2454801
-2.6837435 -1.621057 1.464821
-2.6618781 -1.4812611 1.5043308
-2.5479419 -1.5540094 1.5195512
-2.2616925 -1.556959 1.4557312
3.0330887 -1.5358434 1.4001895
3.6813602 -1.5193496 1.4364395
3.8049116 -1.5580288 1.5673531
4.0600758 -1.5123694 1.5193743
4.3708787 -1.5016041 1.5040569
4.481204 -1.491375 1.4873878
5.2459469 -1.475993 1.4204798
5.5264297 -1.4686543 1.4390216
5.9540486 -1.5320404 1.5168468
6.5264215 -1.5308437 1.4917591
20.862524 -1.5284793 1.4875269
-2.6695654 -1.2852638 1.4977177
4.3304658 -1.2086998 1.5927484
4.4772038 -1.2871914 1.4780767
5.319077 -1.3101834 1.4751561
5.5079384 -1.2896205 1.4492508
20.726433 -1.2776763 1.5826595
20.813404 -1.2265652 1.5935485
-2.6870461 -1.0936272 1.5183296
4.4662695 -1.1341748 1.4465545
5.3931074 -1.0948721 1.507077
5.5194025 -1.0872452 1.4444278
20.704054 -1.0578167 1.4818777
-2.6561987 -0.90581733 1.4917263
4.3548913 -0.98196423 1.503238
4.4431496 -0.92016017 1.4799094
5.486279 -0.90348226 1.4579437
20.756907 -0.92780483 1.4525577
20.814304 -0.80564255 1.5656415
-2.6621196 -0.69501543 1.5144342
4.4590774 -0.68542904 1.4657826
5.2198286 -0.64191955 1.4729316
5.4938741 -0.7228784 1.4488724
20.818775 -0.78704345 1.4295574
25.784378 -0.69736016 1.526258
-2.6586757 -0.55611348 1.4956484
4.3445072 -0.50465763 1.5544286
4.4721446 -0.46067396 1.4723662
5.1751132 -0.4696936 1.4041368
5.3254972 -0.46951336 1.4323629
5.4883432 -0.52183318 1.4721463
-2.658638 -0.31236923 1.494078
4.3426332 -0.31029761 1.5473515
4.4702454 -0.28998768 1.4353998
4.9948397 -0.29801971 1.4227087
5.0916786 -0.28586185 1.4107291
5.3308382 -0.30085608 1.4485483
5.4988232 -0.33265677 1.4937534
-2.6477344 -0.092882752 1.5205238
4.3489857 -0.076099917 1.4412367
4.4728136 -0.081211329 1.434782
4.7949896 -0.14321506 1.4058846
4.8783727 -0.11410747 1.4043083
5.1240129 -0.088841327 1.4189965
5.3367696 -0.10350529 1.4673538
5.4858494 -0.10796848 1.5052032
25.956816 -0.1811486 1.4630115
-2.659513 0.10582521 1.5182226
4.3477373 0.13319936 1.4957006
4.4759154 0.11375766 1.4507706
4.6754766 0.048349097 1.4091502
4.8894382 0.096785404 1.4150828
5.126586 0.083185017 1.45306
5.2953362 0.12242089 1.4607837
5.4999065 0.084514223 1.5305239
25.654848 0.13316968 1.4980006
-2.660748 0.26638994 1.5188664
4.4663396 0.29621091 1.4637871
4.8657198 0.2105816 1.4003391
5.0589561 0.24933086 1.4354962
5.3272648 0.26855928 1.4750139
5.499588 0.30491677 1.5307717
-2.6449919 0.49485165 1.4585559
4.3384609 0.49147353 1.5096883
4.4698405 0.4938001 1.464837
5.5064921 0.4924655 1.5244184
25.661888 0.44836023 1.5138764
-2.68505 0.7207877 1.5017408
4.3449764 0.65369451 1.5237391
4.4689937 0.68575412 1.4609852
5.3528214 0.63409102 1.5268137
5.499918 0.68602544 1.5359232
25.715923 0.72483629 1.5216959
-2.6671462 0.91420776 1.5180094
4.4647341 0.89486516 1.4776024
5.347332 0.87021512 1.5823126
5.4886942 0.8939743 1.5474052
25.775431 0.92860842 1.4123966
-2.6601069 1.1035788 1.4887282
4.35919 1.0977107 1.5187461
4.4681435 1.0891343 1.4840417
5.3307114 1.081936 1.5714278
5.4944658 1.0870939 1.5541546
25.718044 1.1264961 1.477994
-2.7106004 1.2746463 1.5384405
4.3663006 1.2909638 1.4839025
4.4662795 1.3024799 1.4884664
4.6255856 1.3405824 1.4170486
5.2799468 1.3172369 1.5007638
5.4937477 1.2540418 1.5568444
25.658827 1.3891985 1.5563608
-2.7005544 1.5142145 1.5998422
4.3554959 1.5295763 1.4504752
4.4586658 1.4983379 1.4924055
4.6360769 1.441532 1.416465
5.0363135 1.5793402 1.5006839
5.2809863 1.472759 1.4971138
5.4958072 1.470992 1.573505
-2.7145061 1.6664522 1.5602582
-2.5092778 1.7288111 1.5180614
-2.2515531 1.7074295 1.5437207
4.3443966 1.7220836 1.4860257
4.449059 1.6769875 1.5105892
5.2267509 1.6311461 1.4211633
5.4866982 1.6831867 1.5791492
8.7467861 1.7544086 1.585204
25.665808 1.7071325 1.5746424
-2.4280682 1.9031708 1.5726273
-2.2940958 1.9629793 1.5838528
-1.4801731 1.9906301 1.5971165
4.6316915 1.8584465 1.4294744
5.1477242 1.8075677 1.5816381
5.299757 1.8491641 1.5488894
12.713384 1.8402584 1.4211779
20.812511 1.9915798 1.4258623
21.045094 1.870587 1.4449884
25.838249 1.8913566 1.4253412
-2.1090312 2.0817049 1.5567386
5.3476443 2.0735219 1.5050315
5.4046941 2.148093 1.5499573
12.707582 2.1239269 1.4746742
20.8099 2.1177075 1.547066
-2.3919668 2.214406 1.546524
5.333663 2.2446642 1.561432
12.716633 2.2720938 1.5160983
25.705595 2.4181294 1.4764384
-2.6507366 -1.6438643 1.633369
-2.7651 -1.5558426 1.7039695
-2.2410827 -1.5690818 1.7105614
3.272155 -1.5360094 1.7070651
3.5930605 -1.5359707 1.7693743
3.661586 -1.5316063 1.713269
3.8944082 -1.5514843 1.6490391
4.1011066 -1.585955 1.7524018
4.2976742 -1.5044619 1.6811022
4.4413242 -1.5181047 1.6669185
5.5176163 -1.4624661 1.6541686
6.1999087 -1.5478959 1.6148075
6.2200146 -1.5417742 1.7186865
6.6174974 -1.534392 1.6782173
-2.8093758 -1.3013399 1.7607093
-2.6673839 -1.2864312 1.6782187
4.3499837 -1.3095611 1.6872164
5.3600302 -1.3723031 1.7280333
5.4696712 -1.3404016 1.6940329
5.6444488 -1.29998 1.7505455
20.731544 -1.2735385 1.7584121
20.892654 -1.325796 1.6287692
-2.6836176 -1.0717424 1.7259984
4.3337345 -1.1212268 1.6828055
4.4416361 -1.1229401 1.7114199
5.5094299 -1.1079271 1.6829249
5.6796727 -1.0645944 1.7661148
20.728806 -1.0919162 1.6895866
-2.6656506 -0.89633834 1.6656231
4.3155842 -0.87267458 1.7187941
5.5298104 -0.9472205 1.6971474
5.6269202 -0.95094037 1.7645767
20.747166 -0.89441609 1.6777626
20.820498 -0.92659879 1.7644758
-2.6752517 -0.69709712 1.7182945
4.3354979 -0.67582291 1.6813902
4.4675341 -0.71444631 1.6552944
5.477313 -0.73481554 1.7297883
20.784813 -0.73175156 1.6184611
20.881678 -0.75877541 1.7316233
-2.6843655 -0.51882255 1.6558338
4.3286171 -0.51998883 1.7112337
-2.669785 -0.38886189 1.7145977
4.356092 -0.35010871 1.6681033
4.450748 -0.30006516 1.6294886
5.3708706 -0.32999471 1.6378272
5.4500289 -0.26228809 1.7494022
-2.6815865 -0.067529745 1.6628261
4.3188577 -0.12167791 1.7267036
4.415884 -0.10628471 1.7545037
5.4451499 -0.02334404 1.7105228
-2.6844215 0.07468798 1.6430241
4.3575568 0.06061678 1.7416158
4.4492445 0.16089195 1.7726803
5.3654356 0.088472091 1.6621327
5.4590626 0.13321869 1.694937
25.719067 0.0082408339 1.669258
-2.6761775 0.30418605 1.6558988
4.3518453 0.31319404 1.7271993
4.4330821 0.20784196 1.6319427
5.4620171 0.25815588 1.6895462
25.717499 0.35256004 1.6739014
-2.6921713 0.51959842 1.6903099
4.3453946 0.50748014 1.6947726
4.4368029 0.56798458 1.7141056
5.3586721 0.49951956 1.7400923
5.4792581 0.47661805 1.6685339
-2.6767743 0.68797117 1.6780574
4.3566785 0.69398642 1.6577061
4.4605508 0.76214677 1.7270129
5.5048523 0.70278859 1.7008318
25.71703 0.6992926 1.6888021
-2.6929307 0.89759254 1.7059765
4.3541431 0.89636838 1.680256
4.4365168 0.96591258 1.6628733
5.507473 0.91658783 1.6697353
-2.6978917 1.114711 1.690974
4.3425045 1.0924926 1.6596056
4.4380445 1.1917467 1.6848786
5.4740353 1.0910763 1.7113999
25.723484 1.0448806 1.7021381
-2.8047903 1.3380587 1.7391199
-2.6975904 1.296337 1.6960881
4.3324099 1.2791506 1.7059408
4.4354234 1.3111359 1.7120618
5.5208902 1.3241082 1.6404865
25.723949 1.3938613 1.7172695
-2.8083165 1.5414715 1.7704718
-2.7102928 1.4668875 1.7053015
4.3379426 1.461625 1.6399915
4.4255238 1.4576373 1.6730964
5.4863429 1.5034227 1.6578598
25.678967 1.5999473 1.6333075
-2.6943135 1.6497505 1.7108591
-2.4805498 1.7488658 1.6223197
-1.8780572 1.7709706 1.6105051
-1.7312787 1.778584 1.6399775
-0.66900826 1.7111119 1.7828633
-0.38496208 1.7076005 1.7698081
4.3703585 1.6879225 1.6955674
4.4081416 1.6304588 1.7903314
5.3527484 1.7069676 1.6695538
5.4998193 1.6821057 1.6762925
5.9185572 1.7551014 1.7088819
6.3976984 1.7600787 1.7659712
6.4002581 1.7248822 1.7257891
6.9051518 1.7735549 1.7478589
25.730276 1.7451466 1.7358178
-2.5368814 1.8941078 1.6439376
-2.002094 1.9375887 1.6020155
-1.729512 1.8911278 1.6696067
-1.5237222 1.8308015 1.6449866
-0.87083864 1.9179924 1.7734547
6.354218 1.9220036 1.6666321
8.512639 1.9017347 1.7369581
8.6264553 1.9415411 1.7557708
20.655037 1.8829031 1.7674987
25.724102 1.9605629 1.6739993
-1.9626327 2.0907278 1.6140637
7.713232 2.0933759 1.7172902
8.5273247 2.1279163 1.6860917
12.692922 2.1009412 1.7464678
20.652403 2.0722113 1.7422664
25.571976 2.0680957 1.7249418
8.5865726 2.2013874 1.7504641
12.645588 2.2770023 1.7269499
20.791832 2.3574979 1.6102099
20.805803 2.3264112 1.6572533
-2.7482347 -1.9589587 1.980545
-2.7112837 -1.7338598 1.883863
4.0678644 -1.623265 1.8334901
-2.8111782 -1.5633715 1.9840157
-2.7035558 -1.4874164 1.8838869
-2.3039558 -1.5734063 1.8488259
-2.165678 -1.5724369 1.9615591
-1.4713538 -1.5785048 1.8967416
3.3343525 -1.5487674 1.9567933
3.6836476 -1.5622029 1.9528128
3.8597715 -1.5606874 1.8314583
4.156137 -1.5482056 1.8257411
4.3144135 -1.4442377 1.9754353
4.4218845 -1.5247319 1.9234324
5.6584496 -1.4039429 1.9255449
21.041683 -1.5413774 1.9496231
-2.8141108 -1.3237994 1.9111283
-2.6968648 -1.3286518 1.8904204
4.3209839 -1.2206616 1.9933969
5.5106058 -1.2582928 1.8143167
5.6429319 -1.27581 1.8746483
20.762028 -1.2685935 1.8225241
20.870745 -1.2306509 1.9520398
-2.8195171 -1.1343868 1.8410281
-2.6943395 -1.0968331 1.8752117
4.3022904 -1.0787936 1.9061308
4.4313736 -1.0844272 1.8825195
5.5152216 -1.1029423 1.8250787
5.6445775 -1.1201912 1.8962221
20.749481 -1.1348878 1.8580356
-2.8138974 -0.91394532 1.8561687
-2.6938753 -0.90453601 1.9129968
4.3304243 -0.89914608 1.8532518
4.4166021 -0.83351398 1.9387879
5.3435879 -0.86753196 1.8649943
5.5161448 -0.94730777 1.834996
5.6551237 -0.92754149 1.823606
20.779123 -0.96603519 1.8524904
20.906664 -0.8381272 1.902773
21.192547 -0.85043669 1.9627366
-2.6851647 -0.66972172 1.9062306
4.3896751 -0.67323512 1.971734
4.4354963 -0.68355435 1.8865763
5.4627438 -0.66389185 1.8675458
20.937372 -0.7336027 1.8430467
-2.7004247 -0.50020975 1.8961723
4.42837 -0.49272442 1.8923274
5.4292464 -0.50280464 1.9329405
25.681229 -0.59478873 1.9997823
-2.7080059 -0.3129198 1.9559304
4.3308668 -0.36667383 1.9306107
4.4182644 -0.32802936 1.9765844
5.5025239 -0.25920856 1.8426583
-2.716069 -0.09874592 1.8616078
4.4272671 -0.1170122 1.9227157
5.4112091 -0.0078430772 1.9870538
-2.6772323 0.10008906 1.8505441
4.3450208 0.081089579 1.9586507
4.4239712 0.0074276328 1.9706631
5.4977384 0.085198984 1.867891
25.673361 0.0019491166 1.9786803
-2.7104633 0.31766257 1.9025112
4.3718166 0.24167711 1.8972057
4.4123402 0.37938893 1.8832457
5.4747343 0.3267138 1.8493714
-2.8051825 0.59401286 1.8260893
-2.7058859 0.47485361 1.9250406
4.3688207 0.43963319 1.9407514
4.4190412 0.56247485 1.9060171
5.5149746 0.56156009 1.8698123
-2.7034743 0.68811446 1.912035
4.3547897 0.67819118 1.8897377
4.4222069 0.72764963 1.864846
-2.8237138 0.92749333 1.9419491
-2.6957545 0.88611645 1.858348
4.3426137 0.83286357 1.8695052
4.4188619 0.86255664 1.9061894
5.5153403 0.97143036 1.8586862
-2.8145428 1.1272882 1.9593379
-2.715044 1.0927789 1.9136406
-2.8334732 1.338711 1.9916437
-2.7198052 1.2669815 1.9092547
4.3407459 1.2104648 1.8525766
4.41289 1.2413346 1.8536477
5.4620399 1.2981682 1.879487
-2.830379 1.4658076 1.9910631
-2.7394521 1.5209836 1.9160725
4.3349113 1.5055338 1.8734108
4.4156466 1.4640445 1.8203993
5.455946 1.5743604 1.8366873
-2.7438662 1.6655086 1.8903632
-2.5714972 1.7478787 1.8422108
-0.80160755 1.7965145 1.8756447
-0.40879488 1.7474154 1.8561258
-0.097039729 1.7368473 1.9068203
0.27703536 1.72489 1.9536674
0.47376782 1.7273566 1.9832804
1.2899971 1.7245553 1.9110818
4.3604522 1.691084 1.8769469
5.458766 1.7155833 1.8509257
6.1744032 1.7379651 1.8888855
6.7128091 1.740557 1.8269901
6.8344851 1.7558001 1.8523273
7.5785251 1.7891061 1.8146923
8.0616007 1.7486355 1.9554267
8.5937405 1.7921466 1.8861176
-1.2349908 1.8892641 1.8850002
-1.0558474 1.9618828 1.8149495
-0.575113 1.9763057 1.8694453
-0.23477268 1.9541118 1.8986778
-0.11822461 1.8736846 1.9319173
0.0050314069 1.8995161 1.9561734
0.34926724 1.8496966 1.9813837
7.3916893 1.8699988 1.8186786
8.5660858 1.9152093 1.8977345
12.511539 1.8727487 1.8979175
12.633904 1.9186741 1.9607679
20.597389 1.9548321 1.9494609
20.774048 1.8904486 1.8359203
25.698406 1.8151977 1.8293151
-1.0795037 2.0581732 1.820358
-0.89290476 2.0239248 1.8393707
-0.54205883 2.0028095 1.8776903
-0.28867704 2.1072557 1.9325159
-0.077338435 2.0808914 1.9396133
0.088040859 2.0743096 1.9721004
0.27299672 2.1008883 1.992285
0.40283966 2.1388037 1.9699287
7.5047817 2.0783815 1.8235892
7.6602969 2.0376172 1.845331
8.5625544 2.0907164 1.825519
12.525754 2.0124893 1.9202193
12.665069 2.074862 1.8799605
20.671421 2.1204438 1.8760231
20.844765 2.1888289 1.8587208
-0.16570807 2.2390306 1.9395761
20.708838 2.3162661 1.9119531
-2.7094285 -1.513437 2.0826023
-2.2990215 -1.5873734 2.1371086
-1.4165567 -1.5855824 2.0833766
3.2687998 -1.5469403 2.1298642
3.4671252 -1.5668567 2.108906
3.8189054 -1.5715982 2.1775522
4.1013927 -1.5779473 2.173346
4.3499913 -1.4976429 2.1418049
4.40873 -1.5324494 2.0416794
5.4618144 -1.5471361 2.1043282
6.0122499 -1.5550478 2.1661067
-2.8390317 -1.2286786 2.0624554
-2.7210693 -1.2652234 2.1049652
4.3073397 -1.3197008 2.1260579
5.5651851 -1.358058 2.1186016
5.6255665 -1.3040582 2.0772045
12.368174 -1.2383807 2.0825343
20.692169 -1.2272797 2.1026764
20.816401 -1.3092091 2.0644455
-2.7092288 -1.126123 2.0553865
4.3179169 -1.1151271 2.1347282
5.5802155 -1.109468 2.1272042
5.6321011 -1.1392287 2.0742748
12.370631 -1.0312918 2.0630779
20.724838 -1.0795051 2.0310555
20.864788 -1.0883231 2.1241603
-2.717345 -0.91812295 2.1139438
4.3257895 -0.89079416 2.1482158
5.3869629 -0.80052567 2.1409273
5.4928541 -0.88743943 2.1149859
5.6471524 -0.95037973 2.0561526
12.3347 -0.91519207 2.0993788
12.434107 -0.87163401 2.0306811
20.783205 -0.90976864 2.1311793
20.931614 -0.91901636 2.1040065
-2.8249769 -0.74243379 2.1111648
-2.6965244 -0.74368286 2.0414078
4.2800059 -0.73406315 2.1480093
5.385139 -0.61384588 2.1522708
5.4208832 -0.66895193 2.1016769
12.343349 -0.62952381 2.1049178
12.451088 -0.64757001 2.0317013
20.8543 -0.76592791 2.0595446
-2.7260361 -0.50674546 2.0614257
4.3189726 -0.52904761 2.1431463
5.3813467 -0.42512995 2.1686273
5.4316154 -0.49919337 2.1258998
12.375006 -0.41949451 2.1205962
12.486331 -0.41598275 2.0443175
25.687336 -0.4669815 2.0111275
-2.7287033 -0.31531718 2.1202166
4.299727 -0.30012146 2.1509452
5.3757463 -0.24129516 2.1997046
5.4293723 -0.29303518 2.0986016
12.373257 -0.23625651 2.1100726
25.717388 -0.26676017 2.0891638
-2.7259395 -0.10429621 2.0484204
4.3010454 -0.12387657 2.178184
5.3998547 -0.18089315 2.1857557
5.4099693 -0.093655705 2.0771823
12.358588 -0.042605139 2.095576
-2.7440271 0.077273823 2.1290195
4.3154216 0.077389821 2.1858964
4.4041185 0.11946984 2.0197902
5.3648996 0.14837651 2.1462359
12.377145 0.11595611 2.1212273
-2.7269311 0.29943824 2.0873194
4.3501058 0.30755749 2.1584969
12.351439 0.32536104 2.0999913
12.402618 0.3677367 2.1412609
25.654455 0.30053306 2.1269288
-2.8274426 0.40416324 2.0545878
-2.7219784 0.52305323 2.0541677
4.3776908 0.52246869 2.1614602
5.4366598 0.489811 2.1328378
12.363027 0.55305445 2.1051927
12.441669 0.5830217 2.1492403
25.706839 0.58327532 2.1419306
-2.8353755 0.68496907 2.0405157
-2.7303665 0.73994142 2.1078269
4.3822021 0.69188702 2.1023705
5.3760424 0.64408749 2.1986022
5.4229155 0.68874645 2.1165438
12.370921 0.7768892 2.1027412
12.470153 0.79852378 2.1661437
-2.7279594 0.9222073 2.0948918
4.3452005 0.88418972 2.1397312
12.395933 0.9258641 2.1195838
-2.8360591 1.1542065 2.0705564
-2.7277246 1.0885966 2.100491
4.3619394 1.1257422 2.0991094
5.3713241 1.1504282 2.1920838
5.473052 1.1944965 2.0659444
12.390788 1.0774592 2.1140664
12.532148 1.0905905 2.1895459
-2.8384142 1.2890445 2.0766413
-2.7475874 1.3000855 2.1145282
4.3252382 1.3168386 2.1311843
5.3511906 1.276123 2.1282721
12.42291 1.3039696 2.128643
-2.8277335 1.4819441 2.0067773
-2.7329404 1.4876535 2.0615616
4.3550024 1.5295938 2.0425189
5.4799542 1.4033324 2.0397632
10.536936 1.4191419 2.1965775
10.610851 1.4160565 2.0776167
-2.8169751 1.6476645 2.0657034
-2.7202635 1.6599236 2.1045637
0.53779161 1.7993238 2.014595
1.096612 1.7692484 2.0429525
4.3211603 1.6820474 2.1090539
5.3811245 1.661998 2.1478105
5.4689021 1.713909 2.1197765
7.4372544 1.6932526 2.0579071
7.7467937 1.7510757 2.0446579
8.0892839 1.733604 2.1630263
-2.6199131 1.8927108 2.0988746
-2.5327396 1.8395377 2.0290632
0.49605966 1.9173411 2.0396798
1.1537682 1.867843 2.0731471
1.2871161 1.8604985 2.0642242
12.435111 1.8280104 2.1391981
12.64621 1.9120941 2.1123745
20.762184 1.8565524 2.0860784
0.36904645 2.0276179 2.0277076
0.46009922 2.1271217 2.031373
1.1588007 2.0585849 2.0939181
1.2410173 2.0797739 2.0840068
12.472174 2.1478872 2.0983944
20.661686 2.0361719 2.1661904
1.1626334 2.2338378 2.1292605
12.567504 2.2954164 2.1000118
-2.7153149 -1.7822295 2.2134349
-2.8571706 -1.5861115 2.2748232
-2.720736 -1.5319918 2.2761104
-2.2552977 -1.5862758 2.3370361
-1.6080953 -1.5812263 2.2158213
3.1006083 -1.5728841 2.3607123
3.5349822 -1.5572653 2.2044759
3.6804767 -1.5814788 2.2846065
3.9190311 -1.5615058 2.2673898
4.1432037 -1.5820246 2.2456784
4.3689828 -1.4937342 2.2691875
4.5374556 -1.4436209 2.3439589
4.786459 -1.5011069 2.3679881
4.9310002 -1.4473753 2.3916926
5.3850517 -1.5157844 2.3605051
6.2108183 -1.5691487 2.3588829
6.4302168 -1.5634353 2.3622026
7.5750084 -1.5592235 2.3808212
12.440468 -1.4204273 2.3481359
-2.8751063 -1.3010187 2.3418164
-2.7342794 -1.2998314 2.3153541
4.3579445 -1.2878436 2.2790256
4.5728836 -1.2843442 2.3545985
4.7442384 -1.3394501 2.3845649
4.8744411 -1.3418612 2.3778396
12.37666 -1.3295379 2.3425002
12.426585 -1.2600312 2.3290272
20.729664 -1.273216 2.2383995
20.888651 -1.2643317 2.3337884
-2.8553777 -1.0392953 2.3016984
-2.7359066 -1.092698 2.3104894
4.3610764 -1.0999713 2.286679
4.5461392 -1.1187057 2.3594191
5.2869978 -1.0129114 2.3499691
5.4125023 -1.0498583 2.2726972
12.379399 -1.1089292 2.3258581
12.430387 -1.1009139 2.2890391
12.793325 -1.0062613 2.3441105
12.861485 -1.082271 2.3488817
20.742733 -1.0929077 2.2780404
20.897791 -1.1096479 2.3101928
-2.7493713 -0.94250554 2.3190138
4.3486013 -0.8916465 2.2862182
4.6112256 -0.92494631 2.3771825
5.3915892 -0.89685708 2.3726377
12.351079 -0.92215824 2.2966988
12.433726 -0.90598851 2.3061719
20.787697 -0.98873049 2.2341311
20.86219 -0.81551105 2.2269864
21.087271 -0.88101941 2.3034208
-2.7296045 -0.7286694 2.2928565
4.3568897 -0.68663096 2.3118355
4.4987774 -0.64427853 2.3816087
4.7091923 -0.75539291 2.3862138
5.4149628 -0.73115623 2.2510662
12.360599 -0.74098599 2.341949
12.438272 -0.71424246 2.3180008
20.896986 -0.77125508 2.2655811
21.203037 -0.74558997 2.2938519
25.691765 -0.61469585 2.3905325
-2.7433643 -0.46694455 2.2654235
4.3620553 -0.49834919 2.3312888
4.5133133 -0.52842879 2.3802381
5.3830147 -0.46180186 2.3147304
5.4327707 -0.45911771 2.3244925
12.359364 -0.52590919 2.3371325
12.470719 -0.47197306 2.3211181
12.645996 -0.44843313 2.3065927
13.117874 -0.47312811 2.3487298
-2.8804674 -0.39689046 2.3610396
-2.7499385 -0.34150383 2.3094051
4.3561959 -0.30201119 2.3291378
4.4764853 -0.27758104 2.3791842
5.3665452 -0.29455522 2.3173134
5.4024682 -0.3926411 2.2303681
12.344639 -0.38447946 2.3320155
12.470923 -0.31554854 2.3425434
12.733931 -0.30193624 2.3211644
12.955202 -0.30268031 2.3289232
13.144971 -0.28574747 2.3547549
13.21205 -0.31613243 2.3743684
-2.7532313 -0.1021276 2.3145838
4.3513279 -0.109116 2.3385534
4.5078068 -0.10549826 2.3884928
5.1937103 -0.06065762 2.3539639
5.3574224 -0.12911719 2.348911
5.4305592 -0.13218938 2.3243356
12.444176 -0.084180444 2.3465559
12.690538 -0.1101739 2.3309634
12.820831 -0.11287546 2.3364241
13.133345 -0.066595159 2.3797619
13.238193 -0.11862442 2.3766825
25.599508 -0.017362155 2.2046258
25.658134 -0.03492745 2.248636
25.830421 -0.046774175 2.2605329
-2.7502806 0.14244017 2.3326719
4.3527613 0.10550243 2.3433836
4.4472733 0.10798848 2.3815389
4.6074438 0.070773959 2.3880162
5.3824754 0.049261749 2.3295105
5.4570136 0.13878822 2.3233807
12.465824 0.10132175 2.3532169
12.660986 0.12487956 2.3251314
12.882283 0.16603112 2.3497529
13.175804 0.093057252 2.3593311
13.221524 0.1211482 2.3895319
-2.74665 0.31395242 2.3328879
4.3418608 0.29651612 2.3435411
4.5034103 0.29520074 2.3875959
5.370594 0.28798372 2.3188529
12.424684 0.30051681 2.369472
12.63374 0.24638698 2.3660128
12.961149 0.25610629 2.3727131
-2.7564321 0.50989085 2.2815351
4.3373919 0.49993035 2.3420663
4.4254923 0.43636775 2.3797297
5.368329 0.5047394 2.360116
5.4683442 0.53312403 2.3794878
12.398773 0.54202378 2.3571362
12.424551 0.500498 2.3694317
-2.8776371 0.70392919 2.3290825
-2.7534912 0.7168619 2.2993016
4.3381486 0.68640393 2.353338
4.4220076 0.70092839 2.3892148
5.3764286 0.73794603 2.3338363
5.4355626 0.64347011 2.3490648
12.384617 0.74478608 2.3381996
12.43481 0.72058445 2.3750389
-2.8643601 0.89562339 2.3404672
-2.7541466 0.89082378 2.3241498
4.3207283 0.88940245 2.351212
5.3675356 0.96773553 2.3249183
5.476265 0.87375128 2.3289042
12.39924 0.94408202 2.3992081
12.424765 0.90018541 2.3721244
-2.7526312 1.0873556 2.3185887
4.3228774 1.1101786 2.3324926
5.3765936 1.1050195 2.3680503
5.402729 1.0705726 2.3746538
12.380301 1.1244777 2.3384547
12.412266 1.1267836 2.2942533
-2.759115 1.2785703 2.3090785
4.3377028 1.3107454 2.3488107
5.3697028 1.2885927 2.3012609
5.4118028 1.3010328 2.3389828
10.425008 1.2936418 2.2381101
11.0188 1.3367527 2.3185091
12.345765 1.2843103 2.3164065
12.422652 1.2653586 2.3604395
-2.7600169 1.4403479 2.3000958
4.3302007 1.4856516 2.3121703
5.3645139 1.5116138 2.3405139
-2.7467682 1.6621208 2.306807
-2.5552225 1.7054007 2.215661
1.0711727 1.6892979 2.2194362
3.683147 1.7135427 2.3758426
4.3321528 1.6558954 2.322808
5.4667587 1.7135769 2.3477268
12.71072 1.757583 2.3120561
1.0880904 1.891402 2.2305264
3.6999226 1.8868445 2.3770256
12.560958 1.9912462 2.2548671
12.618892 1.8867073 2.2374146
20.790264 1.869975 2.3464665
25.735115 1.8215376 2.2310205
-2.6271839 2.0398488 2.3449717
-2.5931742 2.0492091 2.2323117
1.1036425 2.0815346 2.2682986
3.8192341 2.0099902 2.3919878
12.564818 2.1374831 2.2552867
20.701717 2.1408095 2.3575718
25.585533 2.1357231 2.2796748
1.1156378 2.2433515 2.3082278
12.483455 2.2974977 2.3482723
20.597025 2.3548434 2.3950288
20.625902 2.313035 2.3449037
-2.7664633 -1.7024354 2.4315591
-2.4152982 -1.6091803 2.5299478
-2.2680044 -1.6125779 2.4716358
12.283139 -1.6242942 2.514585
20.363827 -1.6908168 2.488699
-2.8568256 -1.513422 2.4856775
-2.7500758 -1.4901522 2.4387071
-2.4148831 -1.5971366 2.5516269
-1.6976378 -1.5899415 2.4580843
-1.5460405 -1.5893681 2.5584507
1.8379893 -1.5901561 2.5179276
2.4865725 -1.5755894 2.4492753
2.67454 -1.5903172 2.5112863
3.2940998 -1.5780783 2.5002193
3.5107384 -1.5895929 2.4832995
3.7161603 -1.5870955 2.4396467
3.8701365 -1.5848908 2.5403886
4.0562248 -1.5895331 2.5329566
4.2339935 -1.5788994 2.4555955
4.4871259 -1.5728468 2.4509254
4.9042835 -1.5530698 2.4970067
5.3147554 -1.4827713 2.4958868
6.9015455 -1.5759537 2.4077916
7.2037206 -1.5697104 2.4239368
7.9871125 -1.5637826 2.4250998
8.5157833 -1.5692062 2.4471798
12.287415 -1.5356444 2.496645
-2.8412247 -1.2646284 2.4991956
-2.7607908 -1.278234 2.4845614
4.9572945 -1.2888247 2.4262979
5.1683536 -1.2296224 2.559567
5.2393565 -1.349198 2.5403285
5.4526634 -1.2386267 2.5945005
12.38426 -1.367591 2.5160294
12.40446 -1.3685911 2.5444024
13.46147 -1.2221998 2.5139437
-2.8626416 -1.0764456 2.483222
-2.7684145 -1.0973184 2.5024271
5.1056275 -1.0878861 2.5432239
5.3038664 -1.1303868 2.5230999
5.4972854 -1.111981 2.5932105
12.389337 -1.1412686 2.5225801
12.421782 -1.0147457 2.4214175
13.454193 -1.0458393 2.5597932
20.997345 -1.0776701 2.4410388
-2.8079388 -0.86121118 2.5551763
-2.7704136 -0.87015241 2.4950621
4.631012 -0.9563114 2.59589
5.1934943 -0.98790979 2.5608079
5.3253956 -0.87656575 2.5237312
5.4670682 -0.91093957 2.5460999
12.386875 -0.88680404 2.5270126
13.462623 -0.84881884 2.5472484
21.032228 -0.96859837 2.4485252
-2.7743006 -0.71810949 2.497726
4.8722887 -0.6451723 2.4133272
5.1335526 -0.63461149 2.4577456
5.2928414 -0.68095553 2.5298834
5.432128 -0.75822699 2.5839005
12.418432 -0.70214564 2.4357998
13.46458 -0.67994958 2.4740655
-2.7813084 -0.52102005 2.5080485
4.4679189 -0.40048203 2.402046
4.647119 -0.53878188 2.4001775
4.9084945 -0.43482032 2.4630506
5.0883555 -0.49287209 2.4590809
5.2772131 -0.47405472 2.4614716
5.4030695 -0.57301503 2.4031854
12.415941 -0.53229189 2.4619117
13.449224 -0.48707348 2.5339725
20.390663 -0.46589902 2.516798
25.707268 -0.41092896 2.4036648
-2.8752084 -0.22097659 2.5378561
-2.7668371 -0.31054634 2.5161796
5.1074057 -0.3132675 2.464674
5.3104653 -0.28918761 2.4779751
5.4272952 -0.30367991 2.4046068
12.37608 -0.30167896 2.4709938
12.422081 -0.31156334 2.4685929
13.447889 -0.28030738 2.5126841
20.40649 -0.20658359 2.5213537
25.692944 -0.26160845 2.4759591
-2.7745242 -0.054965913 2.5215421
4.5122142 -0.026533715 2.4015021
4.6329069 -0.13665873 2.4209776
4.8349171 -0.037963424 2.4226551
5.1245961 -0.13256587 2.4773479
5.2893147 -0.094624996 2.4979446
5.4041486 -0.048921622 2.4183652
12.368379 -0.10273986 2.5070055
12.423167 -0.085191526 2.4886787
13.444485 -0.078356445 2.5163932
-2.8067126 0.13927159 2.4570899
-2.7770541 0.14433686 2.4940789
4.5342693 0.11056473 2.4123201
4.9321079 0.16168286 2.4355292
5.1261292 0.13894053 2.4378824
5.3165588 0.089531898 2.4829342
5.4242072 0.13086262 2.4309871
12.363062 0.1182447 2.4813254
12.41811 0.1121918 2.4658651
13.43971 0.115978 2.5242612
20.42469 0.028351918 2.5325041
-2.8201799 0.31587505 2.4766808
-2.7861352 0.35986114 2.4890289
4.3578415 0.34930682 2.4075689
4.4723921 0.28020388 2.408843
4.7235775 0.21111366 2.425252
4.8910422 0.34120917 2.4435971
5.1200027 0.33877331 2.4535313
5.3138762 0.29112804 2.496886
5.4130945 0.3195914 2.4458923
12.354879 0.27361423 2.5088859
12.413315 0.30364448 2.4641118
13.434703 0.32814801 2.5284653
20.46772 0.28520158 2.5420032
-2.8172936 0.41061506 2.5973082
-2.7819798 0.49532709 2.4903369
4.3703971 0.51096541 2.404716
4.4836106 0.52002835 2.4159918
4.6577148 0.44023842 2.4011192
4.8850198 0.55212563 2.4449694
5.0670576 0.5222646 2.4321671
5.3033776 0.49783695 2.510057
5.4229679 0.52475655 2.4424481
12.36526 0.47537956 2.5035796
12.41163 0.49317345 2.4448164
13.438855 0.51820415 2.5262854
-2.7629542 0.63285875 2.4656553
4.3633928 0.6944862 2.4086325
4.4568481 0.72071725 2.4182456
4.7616768 0.79070342 2.4088936
5.0608711 0.76375067 2.5110207
5.3022838 0.69286877 2.5151799
5.4116292 0.71242929 2.4761839
12.386315 0.69972146 2.4876981
12.416405 0.69032723 2.4566317
13.44215 0.70202428 2.5512044
-2.8404121 0.89296097 2.5825343
-2.7666488 0.90909082 2.4889054
4.3559132 0.90520245 2.4165361
4.4632363 0.90906328 2.4284546
