# .PCD v0.7 - Point Cloud Data file format
VERSION 0.7
FIELDS x y z
SIZE 4 4 4
TYPE F F F
COUNT 1 1 1
WIDTH 1549
HEIGHT 1
VIEWPOINT 0 0 0 1 0 0 0
POINTS 1549
DATA ascii
14.422038 -1.653584 4.6511502
16.382488 -1.6504903 4.7771583
17.76516 -1.6471939 4.6141729
17.985699 -1.6464531 4.7517023
-14.63413 -0.43236449 4.7295823
10.235072 1.1783177 4.7600431
10.193932 1.3830754 4.7131286
10.254284 1.3117812 4.749155
10.738184 1.2106256 4.7025509
15.222555 2.1787286 4.7068186
-4.7879071 -1.6715138 4.8970118
-0.48184568 -1.7280891 4.8624148
-0.2797612 -1.7280993 4.9372816
13.405133 -1.6449686 4.983716
16.169266 -1.6672124 4.9228382
18.024982 -1.6640385 4.8455048
0.7495929 -0.43575221 4.9398785
0.79082119 -0.35795 4.9804482
0.80320251 -0.21025509 4.9956727
15.232536 0.96069181 4.9862461
10.509968 1.167685 4.9874449
18.263123 1.0152754 4.9137964
10.235324 1.2490516 4.9036798
11.107994 1.4128901 4.8012462
-0.16794538 -1.748619 5.0189757
11.906258 -1.6721131 5.1484222
12.393702 -1.6485599 5.0923767
12.777061 -1.6726228 5.1833658
13.131363 -1.6642284 5.1231275
18.16885 -1.6601875 5.0957327
18.320179 -1.6782775 5.0125098
18.889038 -1.6639447 5.1927114
18.165831 0.94986475 5.1797886
10.18816 1.132849 5.1190434
13.317279 1.3860899 5.0638876
14.163068 1.3848864 5.1631899
16.717369 1.6940167 5.0874929
13.232547 2.1459043 5.0959082
15.087793 2.1544223 5.1028709
25.389694 -1.9185135 5.3358407
-1.2714391 -1.7320008 5.3084478
-0.66795075 -1.7571669 5.3310094
4.4613948 -1.7099427 5.3228235
11.826182 -1.6790539 5.3784113
14.262371 -1.6748722 5.2367921
17.094364 -1.6935618 5.3646317
18.547165 -1.6750145 5.280818
15.17845 0.98459005 5.3791828
18.168196 0.93986291 5.3291364
18.204435 0.91148061 5.3944263
10.66437 1.1737761 5.3072309
10.223001 1.2653385 5.2234554
13.580825 1.3921616 5.2201219
14.623134 1.3631718 5.2855539
14.893589 1.3720623 5.3431287
15.057758 1.3883071 5.3298655
14.141178 1.4088478 5.2737489
15.140759 2.1443596 5.3955708
25.338406 -2.2386944 5.5008707
-1.0580577 -1.7509384 5.4324617
-0.32689458 -1.7620097 5.5001998
11.710242 -1.6981223 5.4069338
11.996139 -1.6931814 5.5657172
12.56602 -1.6868812 5.4023895
17.277975 -1.6910568 5.4146204
18.646469 -1.6896204 5.5900536
19.069593 -1.6817925 5.4819584
19.263184 -1.6870892 5.4675484
18.165056 0.90556085 5.4795985
10.116511 1.178158 5.5101857
10.456388 1.0884432 5.4681034
10.644214 1.1558696 5.4625621
15.271299 1.4023403 5.4614763
6.0268717 2.0925221 5.5846939
13.845137 2.1005135 5.5707703
-0.056665488 -1.7701914 5.6964874
9.835762 -1.6482971 5.7173047
11.535598 -1.682989 5.6098995
12.488694 -1.7117764 5.7555647
15.94993 -1.6662151 5.7310672
16.842058 -1.7198884 5.724762
18.110998 -1.7061617 5.6981564
18.92448 -1.6904624 5.6948881
20.316977 -1.6152807 5.7126622
9.7548771 -1.590027 5.6410742
-8.3931732 0.80330265 5.7203255
18.12627 0.92120981 5.7500277
10.636005 1.1297714 5.727149
10.135719 1.2404153 5.7644768
16.937834 1.3982066 5.6739941
-1.3857331 -1.7749542 5.9194193
-1.0898856 -1.7806497 5.8074164
7.4100728 -1.6146033 5.8175611
12.955614 -1.7091335 5.9443302
14.789067 -1.7110542 5.9434519
15.592182 -1.7378724 5.9678478
16.480385 -1.7213053 5.9417186
17.852226 -1.7161312 5.8614254
18.85741 -1.718289 5.9009233
19.299404 -1.7257684 5.9740291
9.7366133 -1.5688643 5.8119411
-7.1770272 0.79708624 5.9990244
18.110542 0.91551292 5.9283524
10.079287 1.1851032 5.9169016
10.567131 1.1170218 5.9219999
10.121978 1.253623 5.841917
19.193737 1.4131476 5.990283
25.230015 -2.265835 6.1200442
-0.69707549 -1.7892618 6.178587
0.1688793 -1.7856488 6.031106
7.2535 -1.707608 6.0210438
9.7407379 -1.628314 6.0731139
9.8917389 -1.7076784 6.0371771
12.399659 -1.7159879 6.1842108
12.453747 -1.7372117 6.1121778
12.877868 -1.7262609 6.1413016
13.922766 -1.6993399 6.0194221
16.611303 -1.7462445 6.1575818
18.700409 -1.732186 6.057776
-6.0602641 -1.394367 6.0513105
-5.7391081 -1.3138938 6.0981998
-6.2503462 -1.1011194 6.049531
-5.5546937 -1.0999221 6.1340361
-5.3516765 -1.0545299 6.160368
-6.0899358 -0.89841354 6.0732322
-5.3668494 -0.93047309 6.1662507
-6.2598677 -0.6276716 6.0766416
-6.0125914 -0.7526114 6.0954475
-5.8854561 -0.74026942 6.1110892
-5.3862858 -0.6749481 6.1820869
-5.5937676 -0.32188994 6.1639576
-6.0561762 -0.04786402 6.1264877
-5.885613 -0.19157702 6.146791
-5.8434291 0.01140289 6.1556196
-5.7600169 0.27655581 6.1809511
18.116581 0.8759383 6.1711755
-1.8385189 1.1918497 6.0919275
10.058968 1.1683208 6.1117468
-1.9076391 1.2438602 6.0891585
-1.5129102 1.254789 6.1101174
-1.3437551 1.2746332 6.1243396
-1.0360721 1.2413198 6.1659203
-0.90365809 1.3099526 6.1964555
10.07586 1.2040676 6.1076427
5.4578791 2.0480707 6.0420761
14.637438 2.0841591 6.0971546
-1.4534805 -1.7825426 6.3119898
-1.0482455 -1.7944698 6.2044692
-0.93601489 -1.7922735 6.3674717
-0.5466302 -1.7899135 6.3398108
16.487694 -1.7253931 6.2487617
16.663248 -1.7521811 6.3382859
17.757221 -1.7278831 6.2629623
18.020496 -1.7393086 6.3335342
18.667999 -1.7184396 6.3636456
18.877005 -1.7457358 6.281302
-5.1542096 0.43345937 6.2758112
-4.9874425 0.49221295 6.2875438
18.067347 0.88990742 6.2917261
-1.5632949 1.1752033 6.2582541
10.543409 1.151062 6.2977886
-1.4305626 1.2715802 6.2257237
-1.3115331 1.281494 6.3198061
-1.1194025 1.2278882 6.3099251
-0.80258942 1.283954 6.3072319
10.070211 1.2032684 6.2739339
-1.3702658 -1.8224497 6.5690308
-0.88149214 -1.800748 6.576901
-0.27734077 -1.821888 6.5238562
0.12456954 -1.8014575 6.4345493
10.898046 -1.7457759 6.4935398
11.058392 -1.7433383 6.4741859
11.653787 -1.7408367 6.4872599
13.188837 -1.7207682 6.4025235
13.491515 -1.74033 6.4758306
13.665915 -1.7409868 6.4809084
16.458454 -1.7473804 6.5463772
16.789211 -1.7552407 6.4939308
17.525642 -1.7368472 6.5301166
18.829088 -1.7507522 6.5613689
19.026609 -1.7414086 6.592639
18.067734 0.89824098 6.4972863
10.299309 1.0887645 6.520082
10.495938 1.0544757 6.4865742
-0.31444928 1.2534173 6.4245663
1.8987993 1.2728324 6.5345278
2.1318135 1.2613927 6.5486336
5.4588776 2.0827632 6.5195427
25.211971 -2.30106 6.6474657
-0.40418571 -1.8217337 6.6838341
9.5607939 -1.6989421 6.7600665
9.6567001 -1.6851244 6.7295418
10.891509 -1.7430862 6.6076093
11.505913 -1.7435782 6.6961732
12.143877 -1.7577686 6.7775946
13.095456 -1.7549417 6.7932611
13.619735 -1.745007 6.6414642
16.435219 -1.7761652 6.7310743
17.132425 -1.7449105 6.7481346
18.165192 -1.7652025 6.6241832
18.440151 -1.7525915 6.6193609
18.627703 -1.7315741 6.7249374
25.164454 0.49790955 6.7909822
1.6791158 0.74483752 6.7421122
1.7708807 0.81094909 6.646471
18.069838 0.8578043 6.6800332
10.336068 1.03104 6.6481047
10.472323 1.1405137 6.7592168
2.0105543 1.2233198 6.604702
3.1493838 1.3220302 6.7255487
5.8897457 2.0347319 6.7375188
17.535921 2.0752592 6.783309
18.54376 2.1136484 6.69452
25.133457 -2.2785454 6.8323197
-0.1298193 -1.8322798 6.8713765
9.6747837 -1.6982267 6.8802371
11.031363 -1.7552633 6.8425102
12.630684 -1.7626363 6.8752513
13.738506 -1.7668444 6.8238945
16.588711 -1.7527128 6.8403788
16.863945 -1.76113 6.9120126
17.128719 -1.7516694 6.9655643
17.861265 -1.7422384 6.9769888
18.69413 -1.7583286 6.9410162
19.091364 -1.7601973 6.8347888
19.987354 -1.7680504 6.9870334
1.5901287 0.79404616 6.8275146
1.6150584 0.71638989 6.9034843
10.428169 0.99910194 6.8874645
18.07074 0.90166271 6.9977031
10.009444 1.0673671 6.8205309
10.477936 1.0652146 6.8939037
2.0189917 1.2391615 6.8163195
17.315769 2.0794432 6.9035282
9.6448507 -1.7069589 7.1248436
9.8886395 -1.7661283 7.1047888
12.163629 -1.79166 7.1798716
12.565927 -1.7860664 7.1113095
14.273705 -1.7840626 7.1915517
16.662338 -1.7637019 7.092639
19.498579 -1.7475228 7.0773616
25.183844 -0.057790518 7.0991669
1.5760434 0.78121138 7.0973315
1.6171036 0.71075761 7.1054254
1.5751777 0.81385726 7.1048737
17.952303 0.88346934 7.0364842
10.45537 1.117153 7.0292568
6.1806788 1.2512716 7.0492315
6.4838133 1.2884306 7.0982051
7.2761087 1.2452197 7.1682034
14.672356 2.0348804 7.1864948
-0.85188037 -1.8635318 7.3762913
11.971915 -1.7692696 7.2597365
12.712536 -1.786427 7.2803226
13.29353 -1.7795656 7.3022752
15.993395 -1.721469 7.3555508
16.794899 -1.7650464 7.2644086
16.83514 -1.76414 7.3118753
17.262751 -1.796307 7.3750348
18.637651 -1.7802331 7.2031426
20.085804 -1.7444451 7.2070236
11.767707 -0.69557655 7.3953185
25.133253 0.014178276 7.2193971
17.936348 0.91486597 7.2597418
10.009156 1.0228199 7.3522286
-1.4696674 1.2613708 7.2674475
-1.2942966 1.2444265 7.2732701
-0.44277701 1.2455556 7.3751564
14.670048 2.049304 7.2647305
18.986357 2.063386 7.2000561
25.076345 -2.2257648 7.5617943
12.103192 -1.8006583 7.586937
9.4532433 -1.7239292 7.4570646
16.236183 -1.7853752 7.4583149
17.156336 -1.7763953 7.4789472
1.5504948 0.72353321 7.5259948
17.926201 0.85452294 7.4644361
10.366001 1.0601635 7.5642242
10.40568 1.0314269 7.4946437
-0.090866938 1.2658435 7.4636621
1.7287307 2.0128219 7.5772228
19.04958 2.0601799 7.5497427
13.011256 -1.8067951 7.6450109
15.418772 -1.8071526 7.7093735
9.5394859 -1.7277546 7.7275658
11.876867 -1.7870982 7.653615
24.576429 -1.77851 7.7512631
25.079096 0.21608344 7.7869606
1.539798 0.66364264 7.6073084
25.035355 0.96592945 7.6827097
10.169226 1.0193751 7.7587633
10.360401 1.1114509 7.6666632
23.637499 1.460079 7.79141
-1.9997129 1.9556185 7.742137
17.120443 2.0476556 7.6137953
17.421463 2.0321281 7.7619696
-1.0053827 -1.873691 7.9384098
-0.06378293 -1.8701266 7.985332
11.543279 -1.8078264 7.8664808
12.425214 -1.8188351 7.8056717
13.200073 -1.818027 7.8861918
9.4290314 -1.7038358 7.9491525
16.936911 -1.790647 7.9088502
1.4997125 0.68739158 7.8391056
14.882114 0.91353369 7.8576431
17.867558 0.84346527 7.9217916
9.9070415 1.1449482 7.8476067
10.329527 1.0661066 7.9875774
14.742133 2.0162444 7.8684673
-2.1970031 -1.8855277 8.1075478
-1.4212418 -1.8950812 8.136939
0.074912742 -1.8739898 8.1233959
11.898293 -1.8240052 8.0604496
12.961157 -1.8352698 8.0803785
16.875463 -1.8202789 8.1140881
17.234774 -1.8364663 8.1625996
24.408981 -1.8053541 8.0256214
25.013126 0.00049507618 8.1431131
25.032845 0.27414972 8.0486193
17.878557 0.86618161 8.0030403
9.8671026 1.1623145 8.059515
10.092445 1.0185905 8.0454693
23.701927 1.4279808 8.1956539
-2.2315931 -1.8874556 8.2262859
9.5505924 -1.8420702 8.3842869
15.288106 -1.8266649 8.2133751
15.993836 -1.8204072 8.2340107
16.092901 -1.8315737 8.3871527
16.574127 -1.812561 8.3132544
17.225231 -1.8431201 8.3468637
9.4480038 -1.7376337 8.3875093
5.9369345 -0.85381949 8.3213949
11.699865 -0.8949908 8.3117161
11.759825 -0.66724932 8.2352743
-1.4311538 0.99084228 8.2759762
-0.82273537 0.97528422 8.3285513
17.865192 0.90361106 8.2396183
-1.5665717 1.0146488 8.2613287
-1.1539249 1.0287008 8.3969259
9.7941437 1.0351069 8.2784414
16.404797 1.4744014 8.3268881
15.904484 1.9589047 8.3225479
24.914011 -2.2984841 8.5134945
-1.4789013 -1.8964071 8.4996099
-0.09818092 -1.9148756 8.5896816
9.4536781 -1.8602514 8.5940399
11.83812 -1.85491 8.5375366
16.313501 -1.8294806 8.508604
17.392683 -1.8330545 8.5574665
9.5005302 -1.7902882 8.40096
21.542795 -1.4101484 8.4457054
21.734797 -1.5758982 8.5865879
21.918398 -1.2527592 8.5980043
21.790092 -1.1304672 8.5737324
17.7994 0.80332613 8.4904442
9.7817984 1.0432585 8.5338211
10.08037 1.0070328 8.453763
10.251617 1.059211 8.537056
16.326159 1.4668872 8.4140816
6.6331367 1.9554616 8.5301161
24.969305 -2.2987838 8.6348152
-0.19070716 -1.9046497 8.6714239
11.979237 -1.8525643 8.7820911
12.273222 -1.8458378 8.6030188
13.071835 -1.8544729 8.7369652
21.199486 -1.5790632 8.7083225
21.670008 -1.5124459 8.7744331
22.039745 -1.4942877 8.6138153
21.669178 -1.3845541 8.7678108
22.710672 -1.2991658 8.7011747
22.723368 -1.0803035 8.7181902
21.877651 -0.96552199 8.6167603
22.721447 -0.96370208 8.6728373
21.870968 -0.74122483 8.6590776
17.74654 0.77337986 8.7271767
9.8253498 0.96804762 8.7195864
17.747404 0.83104813 8.6307745
9.8803062 1.1424661 8.7359571
9.8868885 1.2075608 8.6282139
10.207798 1.228672 8.6924458
15.89534 1.4312359 8.648674
6.0505791 1.9430482 8.6928148
6.2397428 1.9551167 8.6626139
-1.7216847 -1.9329329 8.9156246
10.023596 -1.8692563 8.8597555
12.640481 -1.8450606 8.9733429
13.361187 -1.8620882 8.9197769
13.400721 -1.8609324 8.83428
14.564814 -1.8645685 8.8918142
15.764446 -1.8644755 8.8651447
15.826094 -1.8540876 8.817688
16.310829 -1.842953 8.8975468
17.086872 -1.8375421 8.9438858
15.992952 -1.7842889 8.9182682
22.890957 -1.763948 8.8528805
23.105755 -1.6658735 8.9613199
5.5350342 -1.4069171 8.9524126
22.407043 -1.4555169 8.8678045
23.128811 -1.5277157 8.9762554
22.501556 -1.3353815 8.8801842
23.136845 -1.2529227 8.9924631
22.301208 -1.1866415 8.8657284
22.54937 -1.0081762 8.9290075
5.7773576 -0.93688631 8.9768133
21.779139 -0.89266187 8.8091002
17.759203 0.73588598 8.8992882
10.235579 0.99269408 8.8139753
17.739071 0.82278657 8.8084745
9.7612209 1.0802454 8.9253588
15.842812 1.4539218 8.8644953
15.839102 1.6069078 8.8473282
5.8989697 1.9561745 8.8989649
6.5847659 1.9441643 8.9464655
-0.29647234 -1.9181144 9.0917625
0.14301337 -1.9272321 9.0921965
10.147297 -1.8780417 9.022047
10.578005 -1.8711604 9.1694441
11.984817 -1.8606496 9.0020695
12.852678 -1.8770509 9.1093292
13.122733 -1.8955491 9.1132774
15.048276 -1.8893824 9.1580296
9.3639679 -1.7452497 9.1413498
0.5299719 -1.3211975 9.1692533
0.52000338 -0.87021148 9.1164198
0.48772931 -0.74013442 9.1971331
5.9159937 -0.77771622 9.0390272
0.36501765 -0.40446103 9.0350647
0.41095519 -0.51211733 9.0420265
17.70756 0.76604557 9.0882883
17.696465 0.80430043 9.0994654
12.964021 1.2151744 9.1675005
13.307676 1.2040818 9.1428366
15.773002 1.4677072 9.1916084
16.288677 1.4042548 9.035862
15.818746 1.6278151 9.0675926
15.707292 1.9888487 9.0734119
-2.2705092 -1.9288034 9.2649879
1.6173353 -1.9209535 9.2929907
9.4209795 -1.8709506 9.3926554
10.534272 -1.8778596 9.3025408
16.588093 -1.8536786 9.307745
0.42229199 -0.60014117 9.2510509
17.700495 0.72299081 9.2656097
13.943995 1.1570058 9.2569513
14.545193 1.1602591 9.365798
14.648085 1.1613905 9.3497238
15.785884 1.5776124 9.2155924
16.114841 1.4941946 9.2754765
15.781271 1.7389109 9.2201252
-1.9016085 -1.9462156 9.5728588
-0.1716349 -1.9247453 9.5595837
0.77005684 -1.9367106 9.54142
1.334372 -1.9428228 9.5688562
1.625387 -1.9335294 9.4698515
9.3612289 -1.8356673 9.553978
9.6538706 -1.9120264 9.5946255
14.410223 -1.9013271 9.4946432
15.117117 -1.8940159 9.4855471
16.336939 -1.8705862 9.5307827
17.083225 -1.8593383 9.5040245
9.336772 -1.7690135 9.4320545
14.675193 0.7329905 9.4717827
17.657768 0.73423254 9.5368423
15.71006 1.1771178 9.4915438
16.150263 1.4016688 9.4054823
15.77799 1.856778 9.4533815
-2.1093833 -1.9563015 9.7506695
-0.82296711 -1.9485886 9.7798643
0.76733369 -1.9599133 9.7467384
16.821253 -1.8838432 9.7883472
17.867302 -1.88729 9.6521454
17.638464 0.73883986 9.6940536
18.110085 1.1810231 9.7812481
14.31585 1.9356238 9.6707821
14.780642 1.9604636 9.7731256
-0.5528903 -1.9758778 9.9639568
1.018687 -1.9572984 9.8835335
10.303087 -1.9178185 9.8363743
14.828142 -1.8980222 9.9829693
15.581056 -1.8973142 9.977313
16.357954 -1.8937459 9.8720875
16.453793 -1.8902154 9.8558283
16.732498 -1.887171 9.9015045
16.811539 -1.8866321 9.951458
17.669521 -1.8813838 9.8599091
17.597076 0.75020915 9.8117332
17.629654 0.69363165 9.8640966
18.182219 1.1921514 9.8568344
18.524792 1.1768959 9.8543835
-0.82054126 1.3414855 9.8941984
-1.1868477 1.4581699 9.8625927
-0.85141361 1.4102912 9.8626976
-1.0810652 1.6146843 9.8080254
-1.4919453 1.8143907 9.8435535
-1.0442495 -1.9737834 10.056049
-0.21113166 -1.9784971 10.118643
0.3175019 -1.9616209 10.068804
1.3985302 -1.9707329 10.023413
7.1690392 -1.9411267 10.023247
13.594055 -1.9030708 10.001554
13.830127 -1.9166322 10.001897
16.40564 -1.8983414 10.064648
20.63699 -1.1111339 10.035643
1.1901884 0.59574544 10.144042
1.2072822 0.57275486 10.147605
1.1928351 0.62403214 10.140172
17.582008 0.75425458 10.197745
-1.4054859 -1.9905832 10.34231
-1.3665518 -1.9990122 10.310732
0.4980917 -1.9896184 10.345248
0.95490998 -1.9798136 10.362123
1.0165137 -1.9805562 10.355085
10.101949 -1.9353962 10.392283
10.257723 -1.9340632 10.362883
14.938938 -1.9084377 10.38865
17.182728 -1.9101458 10.265411
17.383158 -1.905853 10.28865
24.719757 -1.8381853 10.314726
1.2003903 0.55754972 10.216613
1.1693037 0.61099946 10.271822
16.748251 0.78966403 10.323203
17.581573 0.71074128 10.261147
16.738443 0.9119848 10.295063
-0.31832916 -1.972574 10.491974
9.6925049 -1.9344761 10.524487
15.704359 -1.930155 10.487473
16.63488 -1.9096378 10.434834
17.174236 -1.9054761 10.569397
24.684246 -1.7200427 10.549382
1.1544597 0.56224328 10.501221
16.725914 0.77885008 10.545332
17.543182 0.73571491 10.43177
16.741602 0.90074569 10.506117
13.520061 1.4805504 10.546004
13.708827 1.7163942 10.531644
-2.0726435 -2.0062988 10.732941
-1.8859373 -2.0173233 10.648914
-1.2211101 -2.0034933 10.758329
0.74985939 -2.0199029 10.758347
0.74520916 -1.998235 10.648085
17.208927 -1.9469397 10.795958
17.503788 -1.9224694 10.768795
24.647224 -1.9156044 10.657779
1.1402696 0.55108172 10.637176
17.510639 0.71998107 10.777838
-2.0850368 -2.0215111 10.964284
-1.9082367 -2.0135427 10.85327
14.05778 -1.9467851 10.887096
14.292545 -1.9318185 10.832806
16.974556 -1.9348856 10.842376
17.108046 -1.9428654 10.838774
1.1222215 0.52879351 10.998256
-1.89754 -2.0318274 11.079361
-0.73502195 -2.0123086 11.024132
15.142589 -1.9556223 11.05471
15.442797 -1.9504433 11.019213
1.0858949 0.54305965 11.101895
-0.065778732 1.2612177 11.147024
0.013112068 1.2639091 11.140201
0.048538208 1.4493662 11.06646
0.21024132 1.7833669 11.117792
-0.46038157 -2.0335033 11.29461
9.1048498 -1.8761672 11.269088
9.2439499 -1.9678004 11.336897
13.911141 -1.9706793 11.214794
14.809965 -1.9653723 11.340734
16.56208 -1.9900479 11.378088
16.800665 -1.9838405 11.326916
17.105936 -1.9656563 11.31356
22.622421 -1.9095521 11.398518
0.021251678 1.263052 11.297916
-0.071485519 1.6325085 11.389224
0.0044670105 1.6097605 11.327835
-1.8211303 -2.0484126 11.493517
-1.4322917 -2.0443447 11.492985
-0.56407785 -2.0433588 11.548914
0.32494396 -2.0617547 11.597444
0.53182918 -2.0365164 11.448292
1.0205448 -2.0375295 11.447769
9.0924568 -1.9312205 11.504515
9.2838602 -1.9900229 11.443359
9.5940819 -1.9930377 11.560078
15.30232 -1.9648976 11.496021
16.470144 -1.9750599 11.457932
16.719498 -1.9823225 11.51534
-2.0823011 -2.0653782 11.652673
-0.59412169 -2.0654962 11.725023
0.48279563 -2.0434833 11.651808
0.73126239 -2.0488157 11.607169
0.93157661 -2.0585876 11.669971
9.4105301 -2.0061736 11.716115
8.9995613 -1.8755329 11.723188
10.411634 -1.9913931 11.658838
14.083016 -1.985003 11.638046
14.909889 -1.9833926 11.608591
15.961932 -1.9929688 11.705318
24.523565 -1.6009691 11.660114
24.522842 -1.4711192 11.661139
0.61634636 1.0733696 11.628475
-0.033689499 1.7416818 11.601961
0.20763659 -2.0774908 11.933495
10.451986 -2.0074365 11.854588
16.170708 -1.9876306 11.846853
16.438322 -1.9835029 11.877216
1.0246544 0.58693987 11.902335
-2.6490903 1.6939903 11.86223
-1.3482378 1.7496303 11.867237
0.11675644 1.7735825 11.961607
-2.0772855 -2.0825179 12.003553
-1.8910176 -2.0939035 12.025616
-1.1341773 -2.0790277 12.039889
1.0957832 -2.0555582 12.040979
9.7660007 -2.0197446 12.121937
10.005026 -2.0138879 12.134428
16.043335 -2.0121832 12.198679
16.761814 -2.021153 12.131152
10.386604 -1.999373 12.035548
9.4568033 0.7935313 12.097891
9.4403486 0.80264735 12.10601
9.7830486 0.82680875 12.189806
-0.42990875 1.1934557 12.139263
15.708862 1.2597067 12.115159
-0.16327 1.499099 12.154888
-0.027318001 1.7358217 12.16087
0.59309119 1.7473263 12.097419
14.483533 1.7917798 12.03443
15.465815 1.8082931 12.011414
-1.049628 -2.0986028 12.366987
-0.22907194 -2.0775883 12.297114
10.262007 -2.0209522 12.210119
10.835793 -2.0366237 12.379661
11.067788 -2.0342805 12.283744
11.506553 -2.0181427 12.279669
11.794348 -2.0238295 12.345921
12.756022 -2.0245349 12.240307
14.414258 -2.0337129 12.249869
15.59395 -2.0229933 12.325054
15.983534 -1.9975998 12.217144
9.6592484 0.74063516 12.376095
9.7619724 0.8329674 12.287075
-0.39822006 1.2008083 12.222988
-3.0204852 1.6981454 12.343443
-1.945132 1.7108672 12.239587
-0.050814986 1.7398059 12.274042
-2.0160661 -2.1094844 12.475956
-1.6093311 -2.0958419 12.463109
0.51111817 -2.0836291 12.458357
8.9970379 -2.0075629 12.473867
9.2379723 -2.034766 12.446199
11.058236 -2.0198538 12.40021
15.915546 -2.0305581 12.481319
8.9084749 -1.9227575 12.56436
24.502682 -1.3035156 12.569031
9.5551891 0.80030215 12.462337
9.7370129 0.85081398 12.440963
2.2686136 1.7293005 12.558064
4.6270666 1.6907778 12.537013
13.875002 1.7163025 12.527731
-1.7766254 -2.1187601 12.698792
-0.68886012 -2.1134233 12.775763
0.57896096 -2.1024411 12.651148
0.88276327 -2.0907402 12.717383
1.7380786 -2.1045818 12.779889
8.9307308 -2.0068386 12.71614
9.0693378 -2.0545921 12.666409
10.706087 -2.0508213 12.705234
14.329865 -2.055171 12.738844
15.921737 -2.0332406 12.689507
16.239143 -2.0237608 12.765681
16.720638 -2.0396228 12.720146
9.7260666 0.75923944 12.659712
9.278471 0.89759171 12.693942
-2.634146 -2.1201401 12.898958
-2.2944374 -2.1097903 12.871479
-0.036574423 -2.1105909 12.979759
0.45349205 -2.0917549 12.939674
1.2326237 -2.0926018 12.844915
1.559634 -2.0993595 12.962237
1.6106346 -2.1046293 12.958382
1.9405348 -2.1160586 12.997184
8.9129639 -2.0201755 12.87629
9.0710773 -2.0620871 12.845942
11.563064 -2.0588868 12.819433
11.959717 -2.0624716 12.892941
12.583532 -2.0664692 12.844391
16.306324 -2.0302391 12.933261
16.713478 -2.0236032 12.847496
8.8816261 -1.962443 12.94631
23.454395 -1.3309722 12.93977
-2.0782204 0.42477709 12.928001
17.24382 0.54321563 12.90735
9.7253304 0.82040715 12.82093
4.8992195 1.7155018 12.986577
5.1300793 1.712181 12.896485
-1.7592417 -2.1330504 13.062886
-1.0021976 -2.1383371 13.001049
-0.83042628 -2.1254821 13.147692
0.80150366 -2.1205521 13.104021
8.8481159 -2.0206118 13.124474
10.581928 -2.0534706 13.068574
16.192411 -2.0629497 13.033661
8.8330421 -1.9584353 13.062876
17.179682 0.52620953 13.16202
17.207909 0.55191159 13.137794
9.5501595 0.71058464 13.105433
17.212545 0.62132716 13.003792
9.674633 0.8044197 13.047849
13.428069 1.0246866 13.080894
-1.4297607 1.6943198 13.06019
6.3603053 1.691568 13.021342
16.267662 1.7824535 13.108131
-2.4113724 -2.1300225 13.236833
-0.92515397 -2.1369193 13.334924
0.64161074 -2.1275158 13.331335
2.1512115 -2.1012292 13.237848
8.8087873 -2.0474737 13.287931
10.371567 -2.0852909 13.322903
11.094434 -2.0738754 13.333321
12.332426 -2.0878782 13.253283
14.020178 -2.0561037 13.262644
14.898098 -2.0914955 13.298828
16.843863 -2.0454175 13.314341
17.170916 0.50053012 13.337181
17.202511 0.54192364 13.240446
9.6272688 0.78478622 13.349708
17.16316 0.61545306 13.307396
14.176855 0.99616623 13.252299
14.292427 0.99557853 13.253349
15.056203 0.92840528 13.356075
17.52821 1.7983541 13.280318
-2.6996081 -2.1475866 13.516925
-0.24266636 -2.1449304 13.510221
-0.019214213 -2.1515234 13.541518
0.75240457 -2.1208704 13.423218
1.9880843 -2.1150856 13.42474
2.1994612 -2.1237106 13.579117
10.515955 -2.0865586 13.502167
15.534575 -2.0587101 13.444332
16.124409 -2.0605865 13.560205
17.150274 0.57383955 13.517728
9.5996323 0.7893213 13.533658
9.6019764 0.70287192 13.464706
15.728516 0.95514607 13.474979
16.168905 1.0082288 13.509475
16.655035 1.00687 13.561586
-2.1457815 -2.1665876 13.687348
-0.31133145 -2.1613977 13.75803
0.79647762 -2.1407645 13.79319
4.011692 -2.1209748 13.739119
8.8340645 -2.0513518 13.79151
14.050081 -2.085609 13.656498
16.078041 -2.0900388 13.798866
8.7493706 -1.9911819 13.740065
17.108973 0.54157311 13.739094
9.6147356 0.73773384 13.669596
15.705816 1.1463661 13.735118
18.102364 1.0084246 13.626687
4.8124533 1.6648927 13.670164
6.2575502 1.6748194 13.611622
16.474628 1.7464602 13.638256
-2.3515594 -2.1639369 13.902913
-1.7011716 -2.1647365 13.851284
-0.65514278 -2.1638198 13.929808
0.27152699 -2.1724768 13.865961
1.512135 -2.1590688 13.963696
1.94346 -2.1468675 13.845435
2.4433208 -2.1432991 13.905012
3.5085497 -2.143317 13.915894
3.9119258 -2.1251924 13.912769
4.7759504 -2.1237173 13.95786
6.2977104 -2.1165237 13.92963
8.7739582 -2.078933 13.858959
10.237185 -2.1264768 13.986034
13.458666 -2.0981319 13.879714
15.71804 -2.0738497 13.978514
17.091112 0.58138424 13.834547
9.5591574 0.72848958 13.867743
13.747751 1.6608742 13.972111
-2.4977288 -2.167686 14.186586
-2.3746729 -2.1762612 14.02681
-0.55641866 -2.1719377 14.12645
-0.36130697 -2.1951845 14.181978
-0.043837965 -2.158484 14.085648
4.0948606 -2.1246037 14.006362
6.3003693 -2.1150618 14.080469
8.7508001 -2.0533788 14.026118
10.528801 -2.1257319 14.09502
11.824436 -2.1074765 14.103943
12.203642 -2.115133 14.118063
12.402737 -2.1097438 14.007702
12.873057 -2.1032267 14.124205
14.074643 -2.1082616 14.000708
14.24872 -2.1067955 14.167181
15.423901 -2.1058235 14.17024
16.351391 -2.1086738 14.189487
-2.2274513 0.3077572 14.021285
17.109215 0.53673553 14.046109
18.629183 1.7485108 14.008397
-2.4199395 -2.2081037 14.387136
-2.6323919 -2.1780207 14.325338
-2.1938477 -2.195682 14.317275
-0.64506423 -2.1815844 14.33387
0.23208958 -2.1876998 14.343185
9.175395 -2.1420479 14.37001
10.239216 -2.1310821 14.215895
11.203176 -2.1312509 14.325042
15.340677 -2.1043577 14.250629
16.583952 -2.1026661 14.398303
16.674528 -2.0818431 14.262629
5.4354682 0.77326936 14.35953
5.6315155 0.7251094 14.321268
14.674338 1.6659037 14.259039
17.281641 1.7073497 14.359841
-2.5303767 -2.1994252 14.444735
-1.5386636 -2.1835899 14.592249
0.87247723 -2.1792371 14.543188
2.101522 -2.1781144 14.55108
6.2798829 -2.0857956 14.53925
10.183994 -2.1381927 14.498621
12.199242 -2.1317506 14.467258
14.493319 -2.1485305 14.471063
16.470345 -2.1082852 14.599665
-2.3155928 0.44053143 14.511805
0.73246479 0.41030544 14.487558
16.989014 0.53246433 14.542369
17.02594 0.50683105 14.559658
4.7878141 0.73430371 14.405473
5.3693404 0.78527367 14.520344
6.1507597 0.69712353 14.590073
5.1715565 0.96564519 14.523643
5.3445172 0.82063568 14.42184
5.7483225 0.93872893 14.553193
15.200249 1.6552433 14.515672
16.190174 1.708208 14.429571
18.02335 1.7207812 14.458566
-2.204149 -2.2022915 14.718815
6.1733756 -2.1462617 14.625776
8.6512547 -2.1116724 14.725989
10.818472 -2.1460831 14.725334
13.562646 -2.1320767 14.762222
20.455372 -1.1234173 14.673328
17.022717 0.50534636 14.639745
6.0534225 0.74575365 14.61848
6.0972672 0.95366454 14.626136
-3.1757331 1.6152925 14.671465
1.8375268 -2.2147555 14.81006
8.6555672 -2.1096654 14.908884
9.0528107 -2.168504 14.834199
15.270884 -2.1327929 14.815735
16.377527 -2.1085224 14.810776
16.441809 -2.1280117 14.934674
4.705265 1.6193538 14.997257
-2.507045 -2.2141452 15.044169
-1.8116844 -2.2183266 15.140284
0.69975442 -2.2160115 15.120713
8.6385794 -2.132252 15.120883
12.056301 -2.1551533 15.016497
12.500145 -2.1652327 15.012565
13.792981 -2.1659021 15.114748
14.360528 -2.1602125 15.032896
15.375419 -2.1590781 15.095252
15.559525 -2.1450686 15.107073
15.6774 -2.1329007 15.00246
16.184122 -2.1461015 15.154877
16.432831 -2.1406574 15.054069
22.633427 -1.8824232 15.071888
24.138296 -0.048822403 15.167129
24.13199 0.029265165 15.194582
16.975304 0.52051646 15.092463
12.456808 0.70488095 15.156366
-2.6391528 0.85477829 15.150295
-2.4217761 0.84948778 15.195127
-3.2093301 1.5930362 15.014412
-0.32892674 -2.2282071 15.334867
0.19981438 -2.2334504 15.239359
0.33983546 -2.2094116 15.237883
0.88868093 -2.2284968 15.382679
1.8859918 -2.1997995 15.264071
8.5045729 -2.102288 15.31899
10.565462 -2.1900625 15.331758
10.825024 -2.1800113 15.365484
12.480952 -2.1636353 15.240336
13.781914 -2.1747582 15.338408
16.127966 -2.1425996 15.312078
16.564384 -2.1464031 15.297745
16.955044 0.39806497 15.338202
16.935221 0.45517084 15.31642
12.652997 0.70491421 15.311856
-2.1806946 0.87405419 15.225598
-1.1873281 0.8545866 15.332928
15.113221 1.2484301 15.398759
-0.49392986 1.5979353 15.345078
24.100651 -2.6367011 15.445803
-2.50019 -2.2343433 15.544281
-1.8197749 -2.2329259 15.573986
10.964567 -2.2007546 15.565373
15.056207 -2.1575825 15.401237
16.961079 0.39063233 15.488435
16.890448 0.45002437 15.51369
12.463311 0.74044365 15.486693
-0.10910898 0.88953745 15.490227
0.27561623 0.89502668 15.554234
12.459798 0.82236612 15.54446
15.077911 1.1407404 15.586174
-0.48065501 -2.2495673 15.745285
0.46783727 -2.2323341 15.737293
1.6967208 -2.2288861 15.668247
8.6519356 -2.2171965 15.783178
24.10684 -2.3327289 15.740274
8.5266638 -2.1452267 15.643064
12.527704 -2.1946728 15.624791
13.053155 -2.1947079 15.703275
16.90498 0.38878039 15.630141
24.059605 0.33302367 15.751459
16.877533 0.46371382 15.70429
12.448649 0.77317464 15.617349
-0.50647545 1.0313914 15.64965
15.037546 1.2637939 15.729153
-0.49621677 1.5833964 15.703815
4.3575211 1.6290032 15.643981
15.064104 1.6231438 15.642123
-2.8144956 -2.2544069 15.961329
0.055702686 -2.2461104 15.893914
10.736246 -2.216779 15.958456
11.315455 -2.2103455 15.830839
15.135735 -2.2013741 15.942879
8.5237103 -2.1274276 15.896582
14.995141 -2.1757166 15.958014
16.198696 -2.1723194 15.897942
24.068808 -0.088831842 15.884655
16.880985 0.38094032 15.851711
16.86343 0.45015442 15.883967
-1.6492262 0.61364245 15.890209
9.3092194 0.67530137 15.9603
15.068718 1.1599149 15.931022
4.4913988 1.5638857 15.959476
5.5588255 1.5932426 15.955109
1.5038245 -2.2646041 16.146997
8.6173115 -2.2103465 16.006889
10.468241 -2.2284236 16.18021
11.07872 -2.2233346 16.130497
13.256665 -2.2079306 16.075062
8.4991856 -2.167563 16.072191
16.242126 -2.194345 16.076838
-2.4917216 0.25636977 16.186289
-1.6280432 0.38138294 16.0851
16.854715 0.37338337 16.065828
-1.6080348 0.52056384 16.043259
16.849609 0.47694546 16.076174
9.0689411 0.62182325 16.108093
9.3029289 0.66513819 16.13126
12.435215 0.6092155 16.119179
5.0511174 1.5964701 16.142052
14.770151 1.6023848 16.133781
23.977104 -2.6454399 16.35627
-0.13142395 -2.2892349 16.330059
0.37327808 -2.256521 16.365887
1.5072024 -2.2670844 16.359474
8.533247 -2.2331538 16.30085
10.475038 -2.2294803 16.354679
12.451689 -2.2316909 16.229803
14.33795 -2.2369819 16.306726
15.366779 -2.2263699 16.347126
8.4689312 -2.1335945 16.281429
23.986328 -0.0034427643 16.292839
-2.5032263 0.27253538 16.332623
16.816156 0.37303782 16.306805
16.787952 0.4626767 16.328846
16.81328 0.43034315 16.297752
8.8064861 0.6979019 16.214016
5.1950188 0.84911215 16.202076
6.0935287 0.85019028 16.348843
10.216024 1.6188743 16.364445
-1.0080787 -2.2744799 16.490282
1.5847737 -2.2610636 16.552135
8.4911137 -2.2560961 16.573795
10.618924 -2.2600462 16.422972
11.374083 -2.2732933 16.534866
12.147139 -2.2538421 16.502441
16.081579 -2.2122529 16.461185
22.246223 -2.0583577 16.574039
21.056765 -1.8189849 16.416775
21.091864 -1.6612852 16.45697
21.0989 -1.4690083 16.444624
-2.9781401 -1.292239 16.410851
20.932249 -1.2823993 16.434954
-2.9716191 -1.088616 16.464394
21.043303 -1.100317 16.506664
21.082148 -0.93327421 16.581913
-2.4938707 0.25836802 16.507895
0.42984092 0.31446767 16.450363
16.760483 0.37914252 16.516245
16.79812 0.40845817 16.594116
5.0133591 1.5711745 16.525404
6.1066751 1.583946 16.512823
-2.5771232 -2.3203461 16.610783
-2.2846923 -2.2940986 16.679558
9.2415504 -2.2488227 16.732178
14.716776 -2.2362475 16.66996
15.610449 -2.2302644 16.628084
15.963528 -2.2277923 16.798841
-2.5365038 0.2419095 16.783285
16.78948 0.41746026 16.661528
9.2252254 0.61761171 16.781654
4.9529471 1.5596769 16.72802
0.18305391 -2.3093503 16.993391
0.99985993 -2.2950602 16.827713
9.4992447 -2.2810254 16.900707
10.245604 -2.2871714 16.973782
11.854434 -2.2640603 16.822901
12.709666 -2.2684453 16.874454
15.030264 -2.245276 16.967524
15.641 -2.2494316 16.867924
16.242073 -2.2317245 16.824049
8.8291731 0.58753967 16.95145
9.2046375 0.56952441 16.957863
8.757987 0.71267891 16.988297
9.1257696 0.63247961 16.922157
4.9392762 1.5515397 16.979839
5.5686312 1.558908 16.836975
-0.32384661 -2.3144162 17.11552
9.2423706 -2.2777874 17.091667
11.772318 -2.2898545 17.196028
12.854464 -2.2619774 17.15135
14.957127 -2.2529526 17.095036
15.099375 -2.2601683 17.179575
16.345261 -2.2377765 17.081284
16.469357 -2.236551 17.036057
-2.5779781 0.22474587 17.025934
8.7334003 0.67125118 17.125341
12.277715 0.79855567 17.024296
12.638807 0.79371119 17.123314
12.445819 0.80550355 17.00367
12.802502 0.8449409 17.087585
-2.3745892 -2.3310878 17.356834
9.2559366 -2.2748263 17.279047
12.70134 -2.2818947 17.352646
14.172549 -2.2696621 17.393188
12.31052 0.81373549 17.349831
18.304596 1.6720207 17.350302
-1.3407888 -2.3342514 17.433128
-0.4445357 -2.3390396 17.477102
1.323099 -2.3210402 17.437365
8.3612213 -2.2819443 17.566944
9.6328564 -2.2967274 17.534897
12.679917 -2.2872062 17.556566
13.54978 -2.2833738 17.490845
15.12833 -2.2818708 17.469494
15.532999 -2.2784972 17.515228
16.208845 -2.2631531 17.47595
16.737719 -2.2360539 17.409134
-2.6528864 0.26310825 17.582386
12.290273 0.56266922 17.594936
9.1320782 0.63487405 17.467773
-2.3288195 -2.347126 17.742609
-0.27467474 -2.3264837 17.622066
0.91137302 -2.3196211 17.777763
8.3124552 -2.2012734 17.627592
8.9239902 -2.3357577 17.616562
14.259458 -2.2675838 17.629993
15.244946 -2.2738523 17.729641
23.813967 0.35185668 17.67778
8.6496811 0.58954692 17.743177
-2.0981071 0.92895073 17.728762
-2.5244527 1.427913 17.786367
13.453484 -2.3058982 17.976572
13.651937 -2.3057497 17.975956
13.85643 -2.2886024 17.803419
16.910656 -2.2791829 17.983665
23.84754 0.17870101 17.869387
24.036085 0.50807011 17.915667
-2.3993137 1.423593 17.807985
-2.3826494 -2.3523216 18.024605
-1.8336431 -2.3541358 18.029716
9.519619 -2.3417532 18.058668
12.3255 -2.3064027 18.081985
13.014162 -2.3188109 18.157566
13.968266 -2.2911515 18.055227
14.79427 -2.2902071 18.031242
15.165069 -2.2947292 18.164192
17.111605 -2.2820063 18.11051
20.962431 -1.2433524 18.004303
20.996254 -1.0198646 18.057182
21.026842 -1.1349852 18.000313
-1.5554807 -2.3762012 18.391815
-0.12462008 -2.3623397 18.30431
9.320879 -2.3559966 18.244522
15.218024 -2.2902999 18.252325
16.17721 -2.2982368 18.253784
21.930908 -2.2483263 18.380833
21.880774 -2.133008 18.239035
0.30238819 0.21093667 18.211918
16.522949 0.35178119 18.348108
12.62259 -2.3376691 18.403584
14.903024 -2.3108611 18.490932
16.664936 -2.3313761 18.508261
16.957157 -2.3062155 18.473587
16.537699 0.29933286 18.49172
12.958464 1.2281585 18.502686
12.568592 1.4383006 18.502762
12.951583 1.4545048 18.538404
-2.7727752 -2.4093819 18.691153
-2.9188018 -2.3806124 18.605021
-0.12954772 -2.3974364 18.711056
0.44767225 -2.3930609 18.777454
0.74330568 -2.3875098 18.750914
23.679659 -2.2469511 18.663984
16.501797 0.29811844 18.703846
14.581123 0.97424847 18.683821
13.819961 1.0705812 18.628328
14.800077 1.187169 18.669895
13.893036 1.2763672 18.63871
13.785199 1.4193976 18.603931
-2.7860165 -2.4245443 18.959246
-2.4088988 -2.4008019 18.892368
-2.1512258 -2.4065366 18.954163
-1.7690141 -2.4130955 18.874023
8.1399269 -2.3474874 18.9701
9.3397112 -2.3588367 18.849291
14.301477 -2.3413229 18.985481
15.686949 -2.3468025 18.948772
23.633188 -2.0732107 18.856602
14.52718 0.98904216 18.951012
14.55304 1.4973874 18.907825
0.4239527 -2.422617 19.082804
8.0801001 -2.2630107 19.087269
8.9314661 -2.3521025 19.111217
13.03998 -2.3613584 19.04179
13.736487 -2.3610528 19.199522
14.907763 -2.3525929 19.11898
15.974473 -2.33149 19.092592
4.2956138 -1.2540106 19.097761
4.3072953 -1.1119304 19.109211
4.3584728 -0.96749568 19.183338
-3.3122239 -2.4303095 19.283419
-3.1190829 -2.4196692 19.226257
-2.8149047 -2.4204402 19.231375
-2.1190434 -2.4217391 19.228367
-0.35937116 -2.4485741 19.288147
0.60737741 -2.4279294 19.202616
0.88324869 -2.4348423 19.291382
8.1207848 -2.3401318 19.268715
9.092474 -2.3646445 19.214249
15.49617 -2.3414059 19.394579
16.285692 -2.3387156 19.217346
16.400337 -2.3353395 19.290062
23.594341 -1.9449778 19.310152
-2.9399972 0.13061416 19.381844
-3.5804467 -2.4494891 19.574932
-2.2104115 -2.4417689 19.569803
-1.9061812 -2.4393668 19.54879
-1.0753962 -2.4393592 19.439041
0.66495478 -2.4537845 19.598545
8.9554577 -2.3850725 19.438858
13.012439 -2.3873305 19.45639
15.009714 -2.3601129 19.509392
15.263014 -2.352772 19.403431
-2.4082899 -1.8185685 19.523788
-2.4832668 -1.648417 19.582497
-2.3122301 -1.4778383 19.413784
-2.3594465 -1.2290692 19.446268
3.2261143 -1.2686024 19.476768
3.1805544 -1.1231983 19.432802
-2.8726947 0.092538774 19.48226
-2.4824138 -2.4496589 19.695839
8.0266209 -2.314703 19.667593
13.157957 -2.3883569 19.736221
16.726484 -2.3688388 19.692228
-1.9803581 -1.3394045 19.684902
-2.008563 -1.1861895 19.782906
3.2576647 -1.0089972 19.629026
-2.9214509 0.081748754 19.778675
-2.6723981 -2.4476867 19.841671
-2.0732026 -2.4646711 19.980173
-1.4973595 -2.4646595 19.960756
-0.75700492 -2.4718549 19.911966
13.97274 -2.4039094 19.822529
14.869677 -2.386889 19.834606
15.031068 -2.3940511 19.999065
15.736175 -2.3823819 19.894638
16.251417 -2.3742514 19.878662
-2.1203871 -1.5276334 19.878395
-2.0132694 -1.0211647 19.911953
-3.3696718 -2.4762695 20.168808
-2.0704803 -2.4794121 20.176128
-0.50576192 -2.4906659 20.0891
8.0629215 -2.416981 20.167824
8.6721878 -2.4130535 20.009214
12.432472 -2.4057901 20.077372
13.317315 -2.4117036 20.127407
14.851103 -2.408376 20.104599
15.369991 -2.4045722 20.170952
13.86 -2.3982658 20.023794
16.100815 -2.3878174 20.073324
16.581255 -2.3897605 20.151855
-2.2979689 -1.3676008 20.069511
-2.9673681 0.054778576 20.034109
0.021224022 0.16156757 20.147871
4.6774993 0.63458872 20.191219
-3.2872057 -2.4618223 20.217243
-2.1175225 -2.4817896 20.347759
-0.64228755 -2.4746234 20.243656
8.5107594 -2.4255137 20.320677
13.139714 -2.4200971 20.361856
15.656426 -2.4140165 20.208923
15.862312 -2.4052587 20.276234
7.8544812 -2.3533106 20.373508
4.1264992 -1.2649766 20.361017
10.193245 -1.2729207 20.390451
4.1392446 -1.0957693 20.359529
4.2779312 -1.0598154 20.375301
3.9722404 -0.8698172 20.369221
4.5276041 -0.95878929 20.39975
8.3717127 0.39269388 20.309769
8.7784796 0.36565495 20.310629
8.7729902 0.46029916 20.316347
5.0439491 0.63356853 20.208313
5.2423744 0.63138592 20.274284
5.4393187 0.64456046 20.284107
0.3513701 -2.4770596 20.597136
11.585902 -2.4338875 20.426992
14.989967 -2.4366767 20.595396
15.033798 -2.417923 20.433674
15.756781 -2.4297564 20.550331
10.236987 -1.703372 20.532949
10.219592 -1.4849112 20.42617
-3.0262494 0.041649997 20.538723
8.7656908 0.35994521 20.476896
16.287909 0.27148229 20.533054
8.2731247 0.54322952 20.575563
8.7435389 0.41919124 20.483356
7.7496681 0.65447617 20.564459
9.6861115 1.4007137 20.541498
-3.4985313 -2.4952638 20.612993
-2.0360072 -2.4945378 20.796532
-0.70388484 -2.4861999 20.729347
5.0723085 -2.4637408 20.660456
8.3189716 -2.4532263 20.664831
13.205823 -2.4325433 20.641115
14.128498 -2.4356823 20.767929
15.442984 -2.4329863 20.641937
15.879511 -2.4352405 20.784847
16.15505 -2.4197264 20.727947
8.6678963 0.30432254 20.778309
16.279366 0.25763446 20.709492
8.7172709 0.46658334 20.659834
8.3071442 0.6248945 20.656681
7.8984575 -2.402535 20.999451
10.653983 -2.4504614 20.817436
10.957138 -2.4541731 20.943405
11.980606 -2.4543097 20.864567
14.663956 -2.4578338 20.964127
14.979707 -2.448679 20.84837
15.225135 -2.4358907 20.817707
15.56395 -2.4542484 20.98551
15.643597 -2.4438891 20.824417
7.8214197 -2.3375082 20.833054
-0.053870201 0.040294886 20.912836
8.2060986 0.43293923 20.968174
11.878129 0.43461362 20.862501
11.834361 0.61498392 20.821972
13.108967 1.397144 20.909622
13.525658 1.409409 20.835373
7.9582324 -2.4707034 21.123587
10.884348 -2.4810951 21.153597
12.25028 -2.4818053 21.04001
14.647344 -2.4670086 21.109474
23.331966 -2.3134313 21.149536
23.365351 -2.0866075 21.161055
3.9109306 -1.8726237 21.033794
23.360489 -1.8953688 21.181961
8.7139893 0.38687348 21.071646
8.2194834 0.45382237 21.079498
11.77467 0.45856154 21.129608
14.404936 0.91773164 21.177927
7.7713714 -2.4061928 21.26873
7.8682022 -2.4401054 21.307131
15.911367 -2.4780107 21.337677
16.172867 -2.4610162 21.305428
7.8520441 -2.3969536 21.320545
23.336086 -2.0215864 21.237555
8.5873356 0.28891587 21.397326
8.6396484 0.33393779 21.326431
8.2082634 0.46148247 21.317307
8.6407833 0.42419317 21.368877
13.257251 0.63396788 21.274454
14.181537 0.63331866 21.371101
-2.7367251 -2.5434284 21.51226
12.04863 -2.4944475 21.535543
12.920775 -2.4849524 21.537422
13.993355 -2.4874673 21.416096
14.754713 -2.4941761 21.597029
14.93417 -2.4966831 21.43902
15.273817 -2.4776502 21.489264
7.8429346 -2.3893843 21.510109
13.141545 0.19875908 21.477003
8.2043915 0.33516163 21.529785
8.4486313 0.33583227 21.46607
8.651906 0.33586514 21.478001
11.757336 0.46149969 21.428253
0.65658575 1.298366 21.577681
14.316559 1.3603576 21.514982
-0.63768506 -2.5450001 21.605759
7.8512549 -2.4916863 21.71011
12.003693 -2.5010414 21.707909
12.573901 -2.4897394 21.769545
12.801353 -2.5107205 21.693226
14.90321 -2.508914 21.737743
15.085545 -2.5147085 21.750305
15.733199 -2.4926732 21.681225
15.982073 -2.5013528 21.650902
16.15192 -2.4959807 21.66202
23.25351 -2.5477571 21.729248
7.7279148 -2.36988 21.623154
23.288031 -2.3099101 21.75445
23.297783 -2.1737196 21.641678
16.157167 0.19303143 21.796389
8.5748434 0.31303903 21.721254
8.6118402 0.34412983 21.74136
8.6356869 0.40756154 21.651649
14.314423 0.93594074 21.689556
-0.5553053 1.2882042 21.679443
-0.25489777 1.2767328 21.772148
9.7068567 1.3853896 21.76815
14.304573 1.3407792 21.679535
-3.7965691 -2.5573738 21.920359
-0.17642295 -2.5384395 21.942247
7.7511687 -2.4541011 21.932995
14.83544 -2.5103309 21.910957
15.847627 -2.5112574 21.963844
16.081572 -2.488373 21.802673
7.7380943 -2.3980236 21.911619
16.129051 0.10865334 21.915977
8.5860558 0.27487838 21.883549
8.5874805 0.40299153 21.933115
11.712661 0.5604763 21.970356
14.332954 0.86413181 21.80348
14.156518 1.3758481 21.804571
21.103981 1.4031814 21.861717
-3.1198893 -2.5555623 22.106791
-1.1629238 -2.5613587 22.180658
0.12084043 -2.5417101 22.132696
10.92403 -2.5054901 22.048546
12.256973 -2.5074668 22.166775
15.893838 -2.5203159 22.003069
16.081116 0.1514923 22.144091
8.5591412 0.31581184 22.078363
11.753565 0.32728881 22.055481
11.718801 0.56899029 22.087727
14.175321 1.3794248 22.146833
17.509148 1.3674351 22.13534
-1.9826409 -2.6015301 22.342049
-3.4536765 -2.5767808 22.396427
-2.7079635 -2.5727334 22.254547
-1.0916506 -2.5743017 22.368015
0.13091516 -2.5606635 22.313576
0.39071596 -2.5570197 22.215441
8.4717941 -2.5288906 22.285675
11.14881 -2.5084257 22.362644
14.86718 -2.5281885 22.283293
15.207192 -2.5539906 22.261604
15.473515 -2.508357 22.268562
16.078407 0.11933484 22.261467
8.5363255 0.32056448 22.257832
-3.2032723 -2.5880401 22.523729
-2.8864529 -2.5750153 22.576704
-1.7848823 -2.5676987 22.462452
-0.08920598 -2.5618939 22.436251
10.912874 -2.5220065 22.401705
15.610256 -2.5435543 22.556269
3.3399143 -1.4381754 22.441444
3.3466058 -1.3671565 22.493628
13.044375 0.055057287 22.584972
8.5136957 0.33923283 22.46936
11.659361 0.51585305 22.494068
14.258777 0.7893759 22.527967
14.208977 1.2926222 22.508923
-3.3700733 -2.5843263 22.762932
-2.2466795 -2.58201 22.799822
0.18118604 -2.5854859 22.77533
11.127876 -2.5329256 22.655048
13.005144 -2.5306549 22.663879
13.285385 -2.5363016 22.674267
15.101028 -2.539556 22.794027
5.1233678 -1.2908212 22.73629
-3.2080016 -0.11966085 22.714787
-3.1996889 -0.04649055 22.761023
-0.34788322 0.016222119 22.766243
15.993046 0.14268607 22.663925
16.034311 0.10172677 22.784746
8.4811964 0.29280773 22.674772
11.596169 0.30310863 22.788143
14.125125 1.2653995 22.758928
-2.1900444 -2.5851922 22.982107
-1.6830893 -2.5941925 22.91264
-0.57082933 -2.5766716 22.874144
-0.15243787 -2.5753198 22.892649
7.695097 -2.5134382 22.90172
11.053148 -2.5390725 22.87365
13.337202 -2.5455527 22.836655
13.97025 -2.5461917 22.819017
14.62036 -2.5533776 22.902302
15.483578 -2.5413373 22.944387
-3.3781805 -0.057435662 22.842291
15.965484 0.097367764 22.808395
16.020206 0.10480528 22.844521
8.0063181 0.35654509 22.85957
8.4559994 0.27140474 22.908005
11.59687 0.32876688 22.990236
11.602295 0.38787198 22.842241
14.204304 0.78023016 22.864519
14.132977 1.2697681 22.813219
-0.96521115 -2.6023695 23.07604
-2.8127491 -2.5778344 23.068911
-2.5387492 -2.5962396 23.10149
-0.031829417 -2.5578127 23.117006
4.8390808 -2.5758328 23.198196
7.5753503 -2.4394081 23.031918
11.781386 -2.5484397 23.020283
20.118618 -1.464781 23.156567
20.12686 -1.3151881 23.097258
-3.302969 -0.094390869 23.068731
8.4207993 0.19881046 23.098946
7.9616237 0.30629772 23.160709
8.4455528 0.2857585 23.099955
11.653265 0.26128721 23.015327
-3.6616092 0.42722595 23.022701
-2.9820774 0.45238632 23.134705
11.595636 0.5010097 23.048677
14.178907 0.748932 23.147623
14.126182 0.94621634 23.055584
14.112001 1.0867519 23.153137
-0.69593871 -2.6021621 23.207964
-1.0885682 -2.5843203 23.282906
11.926033 -2.5634112 23.381393
14.234383 -2.57337 23.203938
15.403056 -2.5706944 23.378836
21.134914 -2.419477 23.303095
7.948545 0.29183128 23.342331
11.580771 0.25377816 23.376413
11.571491 0.49016684 23.241247
10.025107 0.70463568 23.368618
14.147003 0.89541519 23.215782
14.130259 1.1152807 23.24511
13.350379 1.2739283 23.283211
13.556463 1.2885981 23.325386
-3.9251719 -2.6333604 23.472265
-2.5934978 -2.6198058 23.495644
7.9700394 0.23218 23.411518
8.3743973 0.2803278 23.556431
8.4150791 0.29608637 23.510782
11.525801 0.23685962 23.591274
-0.79338217 0.45794076 23.422085
0.11816669 0.46221334 23.532566
0.44507903 0.49792281 23.562294
14.151315 0.70951474 23.51232
14.031129 0.92125136 23.532459
-2.2340865 1.1935518 23.408699
9.9898996 1.1968577 23.57037
10.030295 1.1885808 23.494295
13.776522 1.2755858 23.421892
-4.3407459 -2.6351352 23.634048
-2.2337747 -2.6239624 23.757971
12.466213 -2.6068377 23.774755
12.442768 -2.5904393 23.785877
14.996332 -2.5862904 23.700108
15.355538 -2.5722685 23.634714
-0.48999718 -0.081095904 23.777225
8.3281975 0.17944694 23.662394
8.357893 0.27117816 23.68037
11.488508 0.45983487 23.710886
14.068483 0.97447217 23.640539
-3.2106194 -2.6300318 23.896933
-1.9802625 -2.6133375 23.889935
-0.62177885 -2.616889 23.937662
15.48948 -2.6089513 23.907726
23.029247 -2.7890217 23.93788
8.9563961 -2.5720615 23.954519
8.9895935 -1.5231066 23.957729
-3.4440262 -0.12439942 23.831768
-3.3879812 -0.11158156 23.878321
8.2824955 0.17131916 23.868788
8.309145 0.25640124 23.960442
10.004586 0.72568107 23.96903
-3.848707 1.1581295 23.973358
10.008354 1.1674401 23.807997
13.988196 1.1541028 23.964767
14.02074 1.0812378 23.937506
13.989241 1.2704643 23.852146
23.004744 -3.0972483 24.100395
-3.6799397 -2.6728652 24.139235
-2.3226209 -2.6456413 24.128971
-0.28277135 -2.6448865 24.00267
14.538942 -2.602803 24.046492
15.376887 -2.6226361 24.105671
19.807255 -1.8705618 24.1416
9.101162 -1.6202915 24.071293
19.784718 -1.7701277 24.137486
8.9263802 -1.4642513 24.106703
9.058897 -1.5204607 24.111553
7.7661448 -1.3351955 24.187214
8.1595039 -1.3368367 24.072369
8.9660816 -1.3936453 24.063875
-3.426708 -0.10275143 24.063389
23.04528 -0.0058013201 24.058952
8.2970171 0.15615928 24.186666
8.3201685 0.27690014 24.14076
11.438272 0.23377645 24.04298
4.4263549 0.45545638 24.156488
9.8942232 0.758349 24.151058
13.966899 0.97030592 24.127981
13.880805 1.2757123 24.007826
-2.9460487 -2.6387458 24.242477
-0.18487364 -2.6350114 24.311405
11.60351 -2.6021032 24.20145
13.754194 -2.6233125 24.369755
14.062722 -2.6214633 24.260826
14.227976 -2.6109366 24.215881
14.85335 -2.6228313 24.331793
15.365212 -2.6245868 24.245041
15.766155 -2.6115341 24.227745
9.0122089 -1.5516784 24.26902
20.125828 -1.416291 24.340881
9.5570402 -1.3314083 24.399464
9.6655588 -1.352469 24.284861
9.8306503 -1.3717309 24.260834
20.037006 -1.28195 24.300032
20.071316 -1.165339 24.286518
8.1978302 0.13132727 24.393789
12.772029 0.098589063 24.290751
8.2499943 0.28305435 24.293283
10.008826 0.66254866 24.262968
13.924778 0.8956666 24.324657
16.377003 1.2507466 24.253471
-4.2989564 -2.6803021 24.434925
-2.7026749 -2.6677248 24.49152
-0.87696934 -2.6638956 24.503128
-0.33935565 -2.6633885 24.576963
12.180083 -2.6176968 24.425295
12.239964 -2.629673 24.558811
14.99763 -2.6082399 24.447645
15.203925 -2.6078601 24.415798
7.9333878 -1.7401924 24.57979
9.5374298 -1.2859761 24.424479
-0.52150059 -0.10773706 24.422646
8.2409649 0.18732888 24.489895
11.395581 0.17283463 24.580307
7.7369218 0.36216772 24.542383
7.8148856 0.33204138 24.557299
