# .PCD v0.7 - Point Cloud Data file format
VERSION 0.7
FIELDS x y z intensity
SIZE 4 4 4 4
TYPE F F F F
COUNT 1 1 1 1
WIDTH 1180
HEIGHT 1
VIEWPOINT 0 0 0 1 0 0 0
POINTS 1180
DATA ascii
5.1465874 2.1527276 -4.4957714 2
5.4581981 2.058471 -4.5998797 11.492064
5.8201489 2.0819948 -4.5432072 12.395737
6.0519109 2.2162361 -4.6281996 17.922501
9.454751 2.2284975 -4.604619 12.539675
9.8114166 2.0560825 -4.6480069 10.599813
10.056049 2.1938069 -4.6111689 8.1951666
13.462425 2.2286224 -4.58074 17.441753
13.769923 2.0774372 -4.5892358 8.6474628
14.093001 2.1718125 -4.5959463 13.774563
17.530174 2.2415938 -4.5752277 15.337889
17.714298 2.1692872 -4.5836945 12.833917
18.676863 2.2433474 -4.7427254 18.960863
19.008366 2.2110288 -4.6181445 21.598602
19.34885 2.168329 -4.4987111 20.060875
19.752295 2.0710523 -4.569428 20.8645
20.202391 2.0471296 -4.6313558 16.681501
20.570213 2.0561631 -4.6356826 18.023167
20.890438 2.0483215 -4.5259418 16.007
21.299519 2.0579214 -4.5252047 23
21.883478 2.083395 -4.7272534 16.222223
-1.805283 2.4587786 -4.6052308 10.163683
-1.4069554 2.509793 -4.5656533 7.4166665
-1.0620655 2.5092885 -4.6329288 6.5
0.13781472 2.4892657 -4.6459079 11.59558
0.55501294 2.5557988 -4.5542679 7
0.96221668 2.5321543 -4.5548363 9.7037029
1.2827901 2.5334785 -4.6030293 14.366333
1.8035733 2.5274153 -4.5919781 15.366166
2.3199909 2.5323992 -4.4285975 16.097
3.0059807 2.4879003 -4.5805025 14.0905
3.4522431 2.5697088 -4.6888709 6.6888885
3.8551276 2.5733597 -4.6710725 5.311111
4.1955056 2.5593407 -4.5963073 3
4.6060467 2.5741003 -4.6035914 3.4444444
5.0112343 2.5755262 -4.6578665 3.4444447
5.2782216 2.5673921 -4.6087732 5.1666665
5.997963 2.4556689 -4.4925919 18.5
6.0669079 2.5114326 -4.5896993 17.261961
6.575458 2.5863705 -4.5630422 13.098177
7.0660639 2.5811524 -4.5968027 11.540667
7.472055 2.5734215 -4.5068316 6.3333335
7.8163309 2.5900214 -4.6304703 6.8809524
8.1738043 2.5927718 -4.5748158 9.3863754
8.5068893 2.5966058 -4.6152592 8.333333
9.0131216 2.6082993 -4.6218171 9.25
9.3706274 2.5520673 -4.5789404 10.279085
9.9633074 2.5815573 -4.414351 3
10.190862 2.554162 -4.625504 11.888875
10.701663 2.5882227 -4.5977964 10.592417
11.069504 2.5816667 -4.6013851 7.8666668
11.395332 2.5976067 -4.6522307 9.7150517
11.782446 2.6026528 -4.5863848 8.1999998
12.170159 2.6021948 -4.580122 5.1944447
12.582142 2.6127622 -4.5365839 8.4259262
12.943743 2.6217294 -4.6195331 9.0843573
13.417682 2.562649 -4.581778 15.998833
13.609999 2.4638457 -4.7715492 12
14.174084 2.5734489 -4.6279707 13.462375
14.628657 2.6282496 -4.4766054 13.620401
14.988754 2.6275821 -4.5071893 15.0202
15.423696 2.6318336 -4.5860014 8.1333332
15.821807 2.6189461 -4.5511646 12.512125
16.195721 2.6297174 -4.6389418 12.2625
16.698025 2.6396387 -4.6852598 10.845708
17.064627 2.6253262 -4.6070042 11.928542
17.463713 2.5836389 -4.6061978 10.963046
17.664701 2.5474298 -4.6196179 7.5555558
18.731262 2.503057 -4.7508836 17.466667
18.996986 2.5553362 -4.5984812 18.983986
19.283001 2.5659173 -4.4781156 18.682142
-2.0033808 -1.6473006 -4.3670969 41
-1.8338724 -1.6497386 -4.3362293 60.507
20.909035 -1.7807159 -4.0411611 38.085499
21.243067 -1.6135174 -4.3359952 37
-2.0211763 -1.2937139 -4.1454544 46.356216
-1.8673859 -1.3456593 -4.1741686 49.592159
-1.390981 -1.3180614 -4.2190418 53.804359
-1.048218 -1.3103791 -4.2442465 56.247314
-0.61516726 -1.3077638 -4.1682215 55.248837
-0.17999494 -1.3028284 -4.2170763 56.007401
0.19480632 -1.2984564 -4.2300138 54.013386
0.57566851 -1.2870657 -4.1964049 52.779072
0.97679526 -1.2820995 -4.2229276 53.948891
1.4036494 -1.282176 -4.2061195 52.764927
1.8400134 -1.2842623 -4.2062936 50.784
2.2724073 -1.286912 -4.1809721 56.54818
2.6701958 -1.2766018 -4.2021646 51.307594
3.0386126 -1.2828109 -4.1608176 52.751137
3.4222245 -1.2770536 -4.2293649 50.808304
3.8193877 -1.2813246 -4.1934671 53.243999
4.2181578 -1.2813151 -4.2325773 49.735485
4.611392 -1.2836041 -4.1961036 51.327797
5.0087333 -1.2770885 -4.2032495 50.181065
5.3899164 -1.2775675 -4.2046161 50.996315
5.7793756 -1.2721616 -4.1857305 49.786587
6.199142 -1.2669303 -4.2248912 49.525261
6.5766726 -1.2649144 -4.1685023 48.921547
7.0081658 -1.2605526 -4.2114024 50.100357
7.4222751 -1.2638196 -4.2096043 52.655697
7.8274426 -1.2576917 -4.2470927 48.26936
8.2013397 -1.2592897 -4.2516813 47.740356
8.562582 -1.2619975 -4.1842742 50.545517
9.0250854 -1.2591199 -4.1899762 50.54771
9.364645 -1.2535768 -4.177649 48.876087
9.7826767 -1.2512509 -4.1886153 52.399872
10.213436 -1.2404288 -4.236939 50.126747
10.609499 -1.2368917 -4.2038593 50.95562
11.023264 -1.239024 -4.2087073 52.511887
11.380745 -1.2347406 -4.2160993 48.812637
11.76017 -1.2390349 -4.1991849 51.475651
12.183196 -1.2346586 -4.1747241 53.25079
12.551814 -1.2291337 -4.1772518 52.437386
12.968941 -1.2253845 -4.1947021 51.173439
13.38521 -1.2222931 -4.1945639 50.006474
13.771763 -1.2247983 -4.1988564 52.222725
14.183376 -1.2265942 -4.1896119 50.982716
14.590483 -1.2294279 -4.1788564 49.785927
14.981277 -1.231398 -4.1962843 49.712086
15.387233 -1.2231594 -4.1837673 45.384182
15.77859 -1.2303022 -4.1704011 49.44165
16.175558 -1.231429 -4.1547852 48.042465
16.561308 -1.2301406 -4.1541104 47.902634
17.061659 -1.2286435 -4.1951599 46.970016
17.421642 -1.2218381 -4.1603856 46.130554
17.802393 -1.2229362 -4.1617708 46.632389
18.220921 -1.2172042 -4.1598434 45.943031
18.609268 -1.2194932 -4.2573366 43.924999
19.0121 -1.2206451 -4.2598071 44.182095
19.388874 -1.2311031 -4.206965 44.030346
19.775652 -1.2235727 -4.2084622 43.409966
20.211475 -1.2205714 -4.1735363 42.476273
20.645361 -1.2147481 -4.25735 42.516998
21.03047 -1.2459297 -4.2458138 41.670216
21.285229 -1.3127328 -4.1770749 37.524574
-2.0449147 -0.98803926 -4.1988769 47.833191
-1.9338326 -0.99215758 -4.1793804 43.408409
10.92972 -1.1863713 -4.3564281 41.0895
12.127947 -1.182112 -4.3391285 39.086502
12.72095 -1.1801305 -4.3879781 38.0835
13.058065 -1.190052 -4.1593904 37.584
13.480344 -1.1593133 -4.3020935 39.088501
13.89737 -1.1986158 -4.2297721 38.081501
14.008356 -1.1824317 -4.3524036 38.082001
15.452838 -1.1712369 -4.2526054 37.584
16.374201 -1.1887642 -4.2675629 37.086498
16.643316 -1.1733887 -4.2898269 37.081001
17.370892 -1.1917968 -4.3428154 40.004124
17.880358 -1.1873997 -4.1733689 38.563751
19.837528 -1.1898166 -4.0370622 39.004002
20.130596 -1.1947246 -4.3672957 44.017502
21.105806 -1.0501535 -4.301909 38.953999
21.307116 -0.99155653 -4.1986942 37.267677
-2.061728 -0.57684028 -4.1798687 38.304417
-1.929968 -0.61018103 -4.1997457 38.750816
21.032335 -0.67966098 -4.1365433 35.275581
21.343689 -0.59385723 -4.2461252 34.415821
-2.0438564 -0.17565209 -4.1430125 35.284721
-1.9425298 -0.20309471 -4.1935792 34.78907
21.075201 -0.20712247 -4.1397529 32.363106
21.322313 -0.19379759 -4.2429891 32.199898
-2.0667884 0.19813058 -4.1274085 32.5
-1.9381965 0.2093973 -4.216258 30.460026
21.131258 0.30648667 -4.1025901 30.783749
21.297941 0.24337536 -4.214313 29.660341
-2.0508571 0.61965245 -4.0921087 28.202381
-1.9315223 0.58837992 -4.2157168 27.067898
21.14362 0.6579361 -4.1497412 30.071428
21.284199 0.5865348 -4.1546712 28.94507
-2.0420861 1.00143 -4.1208749 23.922316
-1.9372716 0.99196637 -4.2178955 22.845407
21.143623 1.018484 -4.1193047 28.400063
21.284986 0.99461079 -4.1729326 27.159723
-2.0448661 1.3910203 -4.1226315 20.612226
-1.9425648 1.3854614 -4.2267642 20.110386
-0.072153784 1.2931457 -4.2065392 17.754868
0.12769935 1.3299984 -4.0588932 17.377226
0.64311743 1.3235066 -4.0253267 17.8311
1.0254564 1.3222771 -4.0551987 29.056
2.7295017 1.2892555 -4.1344957 26.0515
2.8967149 1.3227789 -4.2161622 17.24477
11.069036 1.5488766 -4.1833177 14.57826
11.382216 1.5580158 -4.1814642 11.109545
11.68908 1.5588814 -4.1927867 14.282953
21.141232 1.4063047 -4.100656 26.590034
21.283339 1.4051433 -4.1948504 25.305883
-2.0530593 1.8014286 -4.159852 8.4765663
-1.9255636 1.7525287 -4.2065258 16.029009
-0.47728109 1.9641798 -4.1930418 1.3333333
-0.24919534 1.9570298 -4.1409535 13.664805
0.57015365 1.950698 -4.3044143 11.93225
2.6062796 1.9825096 -4.1781759 10.947186
5.6413469 1.9993578 -4.1874685 13.77475
10.998882 1.6630642 -4.2584496 20.710564
13.65288 1.9675353 -4.0168648 28.0515
15.458207 1.8263861 -4.374135 11.002
15.759128 1.8516806 -4.3863835 19.88843
16.224491 1.8184204 -4.3432927 20.147192
16.615505 1.8270382 -4.3101745 18.975937
16.993013 1.8336067 -4.2663703 18.787844
17.401516 1.8406388 -4.2360926 20.164465
17.800102 1.8375962 -4.197104 20.353865
18.208904 1.8273664 -4.1587019 19.378546
18.576851 1.8461677 -4.1175098 21.851166
18.965109 1.8460989 -4.099133 20.098963
19.361042 1.8360878 -4.0583706 22.526501
19.805304 1.8633314 -4.0640659 22.538406
20.168566 1.8977791 -4.0594382 26.111166
20.531725 1.7675707 -4.0485048 29
21.142801 1.7946701 -4.1009846 25.55228
21.308187 1.7515355 -4.1939492 22.255556
-2.0533798 2.0729437 -4.1337223 25.036835
-1.9360405 2.1591358 -4.2212448 11.618559
-0.069576688 2.1480639 -4.1411448 21.203142
0.092959121 2.1384516 -4.220006 17.766663
0.60520738 2.024014 -4.2916255 11.015667
2.7728581 2.2282066 -4.1411133 19.65
2.9516141 2.2013388 -4.2470026 14.68361
5.4399762 2.058841 -4.1701679 9.7610779
5.8452687 2.1194115 -4.1828184 13.98535
6.0197482 2.1812527 -4.1489272 11.416667
9.4006176 2.1797242 -4.1960163 13.337605
9.7653732 2.0319767 -4.1478992 15.2681
13.439936 2.192064 -4.2019534 15.425467
13.777653 2.0610456 -4.1632538 7.75
14.063751 2.1589832 -4.2991767 14.531
17.504066 2.1931143 -4.2028222 15.477758
17.820883 2.0886276 -4.2438493 13.99297
19.477722 2.2186575 -4.3367801 19.42872
19.806799 2.1876867 -4.2345891 20.91161
20.149933 2.1721706 -4.0935879 21.979361
20.549137 2.1909251 -4.0517659 22.271751
20.903627 2.030659 -4.2438684 20.553625
21.247284 2.0312252 -4.1200476 20.782749
-1.8600594 2.4507232 -4.2561069 11.014571
-1.4431242 2.5077538 -4.230413 8.5
-1.1212331 2.5165865 -4.3432398 9
0.2001628 2.4924817 -4.1882567 9.8999996
0.54659116 2.5170965 -4.2186637 11.83725
0.9965409 2.5138388 -4.2236395 8.8999996
1.5027385 2.5021756 -4.2414932 12.333333
1.7714925 2.5118804 -4.205442 10.5
2.140636 2.502423 -4.2617755 12
3.0000098 2.4768047 -4.2261796 10.764584
3.5483251 2.5426259 -4.2209425 3.9166665
3.9431882 2.558475 -4.3618541 0.5
4.2606263 2.5544498 -4.3350062 5.0555558
4.53092 2.5658312 -4.2456689 5.6666665
4.9682846 2.5576785 -4.1805239 3.7916665
5.2310891 2.5048327 -4.0888662 11.049
5.9425211 2.4817555 -4.1820269 15.3895
6.2085118 2.539526 -4.1075864 12.156602
6.5518227 2.5596499 -4.2398977 14.7362
6.9353957 2.5573063 -4.1992626 9.25
7.3842258 2.5582848 -4.2380381 4.083333
7.7655206 2.5693798 -4.217773 9.5714283
8.1093187 2.5652678 -4.1756396 9.7986431
8.5384016 2.572885 -4.2276516 10.251409
9.0325766 2.5866635 -4.1651921 8.6000004
9.3230247 2.5568676 -4.1688275 10.351852
10.138103 2.5389788 -4.1867309 10.758834
10.657293 2.5585604 -4.1920643 5.75
10.893502 2.5629675 -4.2363567 5.8333335
11.431293 2.5753465 -4.1280069 11
11.784281 2.5790031 -4.1242146 12.586965
12.166173 2.5881374 -4.1982212 10.256988
12.519806 2.5914528 -4.203063 8.1743097
12.987056 2.603663 -4.2099547 6.6296296
13.404724 2.516597 -4.2231917 14.5285
14.19992 2.60148 -4.279089 13.371802
14.58497 2.6179109 -4.2271066 14.886566
14.935783 2.6122315 -4.2087035 10.341583
15.396993 2.6177719 -4.3323879 10.433333
15.788107 2.607538 -4.2821317 11.799857
16.187523 2.6076937 -4.2686162 8.2816362
16.574829 2.6078172 -4.2209177 8.6381836
16.991199 2.6092441 -4.2131047 9.4249105
17.363918 2.5924077 -4.1963496 9.9978247
18.669529 2.6372442 -4.1732759 17.045
19.072609 2.6357458 -4.1524482 8.0111256
19.489946 2.5385926 -4.3284945 17.853622
19.792971 2.5019374 -4.223814 19.322029
20.098606 2.5140352 -4.073482 18.641029
-2.0511069 -1.6247241 -3.7778475 43.5
-1.9226263 -1.7685763 -3.9084549 56.611248
21.086924 -1.6798195 -3.8889792 37.692997
21.222113 -1.6132523 -3.9711556 37
-2.0454178 -1.3260269 -3.7640116 49.761948
-1.8658385 -1.347836 -3.819663 52.728344
-1.40569 -1.3435436 -3.8065782 56.198112
-0.98918545 -1.3287605 -3.8291891 56.804359
-0.6597147 -1.3297476 -3.7544124 59.202229
-0.23452123 -1.3210224 -3.8163559 57.174809
0.21269801 -1.3055513 -3.8801341 52.725033
0.61515212 -1.3104068 -3.780731 55.263966
0.92603451 -1.3015794 -3.8221724 50.337341
1.4236883 -1.3051059 -3.7952669 54.921604
1.7934908 -1.3013998 -3.8088531 54.971241
2.2485275 -1.2990084 -3.7891078 50.044937
2.6142013 -1.3024032 -3.7860656 52.71822
3.0423875 -1.2977748 -3.7794175 49.142723
3.4405916 -1.3049668 -3.7628424 51.577515
3.8063629 -1.2998731 -3.8269317 50.722179
4.2226143 -1.3021263 -3.7862697 48.988022
4.6489263 -1.3005065 -3.7825611 49.572708
5.0051079 -1.3007886 -3.7883048 50.034771
5.3808427 -1.2995621 -3.8039775 49.056999
5.7909813 -1.2901083 -3.8165724 49.283112
6.2029181 -1.2835289 -3.8342042 48.312542
6.6364098 -1.2842493 -3.79689 49.433121
7.0151834 -1.2809131 -3.8027241 50.837517
7.415029 -1.2843807 -3.8328357 51.091949
7.7658601 -1.2831976 -3.7846847 48.424412
8.1910782 -1.2784265 -3.8617666 50.040535
8.609005 -1.2775548 -3.8048658 48.223709
8.9834909 -1.2772019 -3.8088324 52.650898
9.4019585 -1.2726835 -3.7961752 49.66412
9.7752657 -1.2645159 -3.8151317 51.471264
10.191351 -1.2601656 -3.7984467 52.015102
10.610301 -1.2603332 -3.8109894 51.392605
10.992574 -1.2610148 -3.7827513 49.660007
11.409724 -1.2583957 -3.8274751 50.95929
11.824391 -1.253969 -3.8102818 51.241657
12.194067 -1.2520746 -3.814126 52.336441
12.591697 -1.2453769 -3.7584748 51.151405
12.976629 -1.2385408 -3.7768998 52.421783
13.367233 -1.2347686 -3.8047833 51.483299
13.746076 -1.2341934 -3.7942786 51.26503
14.174743 -1.2411577 -3.7920218 52.43972
14.588667 -1.2375749 -3.8150432 52.01392
14.993224 -1.2430621 -3.8470957 51.671661
15.38728 -1.2451651 -3.839478 50.906651
15.783177 -1.246294 -3.750623 48.508873
16.166065 -1.2420059 -3.7667596 48.53817
16.611162 -1.2400304 -3.8009756 46.950321
16.966797 -1.2420242 -3.7838037 47.764824
17.346712 -1.2483981 -3.7867849 46.12225
17.792933 -1.2402412 -3.8093045 45.927547
18.190466 -1.2410983 -3.8678362 46.405693
18.547197 -1.2458546 -3.7632048 45.740131
18.993879 -1.2469064 -3.8326981 44.106171
19.403517 -1.2477951 -3.8049181 45.596966
19.797297 -1.2433299 -3.823926 44.119385
20.215229 -1.2398465 -3.8521142 42.682251
20.520243 -1.2396411 -3.7693048 42.306213
21.032572 -1.2400664 -3.7815213 41.077873
21.260817 -1.3509344 -3.7708998 36.625
-2.0535586 -0.98350918 -3.75804 44.198391
-1.97023 -1.0021251 -3.8649738 45.592548
12.271694 -1.183588 -3.8192127 40.088249
13.622144 -1.1706917 -3.9169011 39.088001
14.224541 -1.194351 -3.9310956 38.081501
16.988089 -1.1957469 -3.8282862 37.080502
21.135332 -0.89781535 -3.7670515 36.713436
21.297159 -1.0585116 -3.8045714 38.69669
-2.0491011 -0.59809107 -3.769031 39.323174
-1.9693898 -0.6007762 -3.8429518 40.257702
21.092663 -0.59290862 -3.7917638 35.050785
21.332781 -0.68264866 -3.931576 35.023808
-2.0439892 -0.1996242 -3.7614737 35.28297
-1.9531295 -0.22004981 -3.8420398 34.599232
21.081131 -0.18544123 -3.8130209 32.992901
21.247913 -0.2617383 -3.7646377 31.966665
-2.0459538 0.19421336 -3.7512226 31.108372
-1.9487034 0.17734925 -3.843024 30.014099
21.078459 0.17539589 -3.8044884 30.258484
21.271618 0.32565382 -3.8242776 30.318182
-2.4273996 0.50765586 -3.7101498 27.098
-2.0468647 0.60198748 -3.7659113 26.878084
-1.9598291 0.59561563 -3.840265 25.728014
21.04652 0.58929616 -3.8798714 28.666666
21.257351 0.60933095 -3.824121 28.880877
-2.4436121 1.0330714 -3.7232208 25.598
-2.0410697 0.99889171 -3.7616413 22.84079
-1.9589952 0.99202067 -3.8336115 22.801058
21.121105 1.0345862 -3.8589649 27.154428
21.257687 0.99958622 -3.8041134 27.09992
-2.0459521 1.3710204 -3.7859344 20.769411
-1.9597613 1.3719897 -3.8433599 18.799038
-0.14034322 1.2828081 -3.7886388 19.648865
0.2794311 1.3275834 -3.9701908 20.999958
0.60036349 1.3450065 -3.9624009 18.114946
1.012556 1.3367382 -3.9155006 19.400181
1.3171406 1.330171 -3.9023843 14.312142
1.7496104 1.3360183 -3.8240144 17.493279
2.1440015 1.3210602 -3.7969315 17.354689
2.6992369 1.3064737 -3.7442513 19.323084
2.9739056 1.3202804 -3.7591825 20.195389
3.4614058 1.3550619 -3.6562068 19.62542
3.7188892 1.3442187 -3.6239643 17.496719
4.0676966 1.3575174 -3.6385436 26.049999
4.7728643 1.3045518 -3.6154995 30.056499
4.9783421 1.3347797 -3.6239052 30.053499
11.087502 1.5419234 -3.8472598 14.552028
11.431623 1.5439168 -3.8285012 8.6253176
11.688511 1.5337503 -3.7825825 12.459833
21.129135 1.4497617 -3.8279128 25.684357
21.24913 1.4076335 -3.8032413 24.966782
-2.0400655 1.7551178 -3.8009422 14.859769
-1.9601157 1.7235565 -3.8483794 17.439198
-1.4315352 1.7682514 -3.9365282 15.844583
-1.0555453 1.7576332 -3.8013887 14.033834
-0.45049572 1.9711475 -3.8894742 20.547249
-0.21787605 1.9645936 -3.7275956 18.907814
0.012360573 1.9797826 -3.8969364 27.059999
0.75286424 1.7834313 -3.6283727 16.022999
0.82849979 1.7880017 -3.6674228 20.047001
2.4904251 1.9709852 -3.9622731 11.024
5.4618988 1.9847081 -3.7449329 10.7875
5.7598596 1.9901686 -3.8001621 13.610901
9.8606577 1.997794 -3.8839931 4.7999997
10.729967 1.6273654 -3.7937036 17.594749
10.977737 1.6481028 -3.8172925 20.917667
11.747036 1.6386986 -3.6348009 21.053499
18.657841 1.8228234 -3.8576212 10
19.142138 1.8027707 -3.9193919 13.012668
19.42305 1.8348016 -3.9388742 21.348665
19.782017 1.8383782 -3.9483356 21.126348
20.156816 1.8567368 -3.9054182 19.961597
20.637581 1.8695794 -3.8324709 22.261377
21.043129 1.841291 -3.8306842 23.176418
21.240339 1.7749543 -3.7972853 22.781015
-2.0591261 2.1067786 -3.8115032 13.2685
-1.9633605 2.1609511 -3.8696759 11.021428
-0.055420533 2.1730275 -3.8196533 19.717808
0.030854523 2.1342058 -3.8328536 15.874928
2.7407999 2.1443589 -3.7634981 17.383249
2.8906589 2.2057021 -3.7979774 17.385298
5.3087025 2.1471748 -3.8629053 10.271556
5.8622737 2.1574066 -3.7955761 14.296876
9.1758308 2.1960552 -3.8692894 6.75
9.3700294 2.1445103 -3.8235655 13.535277
9.7589436 2.0085814 -3.8259873 6.8497329
13.389862 2.2262416 -3.76718 15.994741
13.793836 2.0501528 -3.8294311 14.921599
14.043391 2.1173258 -3.8666346 26.050001
17.445902 2.1490095 -3.816957 14.105646
17.796232 2.0702095 -3.8345425 15.235603
20.29534 2.1957459 -3.9495807 18.698315
20.603125 2.2120612 -3.846235 22.120573
20.981813 2.2127306 -3.6907489 21.42342
21.223108 2.0466869 -3.8050995 23.666666
-2.0321543 2.4373732 -3.7873087 8
-1.7690971 2.4693799 -3.8482025 9.6811666
-1.3973284 2.4903226 -3.7696106 9.6203003
-1.1237659 2.4626408 -3.842334 9.333333
-0.013299644 2.4763074 -3.8876901 14.5
0.19698346 2.477016 -3.7412252 11.538662
0.61273128 2.5045562 -3.8556228 10.25
0.95446855 2.5066891 -3.8227999 9.3571424
1.3040081 2.4950955 -3.7058532 11.666667
1.7186575 2.4870949 -3.869652 12
2.0331607 2.5060191 -3.657176 9.5
2.9992778 2.4829056 -3.8812442 6.686667
3.4207311 2.5308867 -3.9097805 7.0833335
3.7698455 2.5342674 -3.8738999 5.5
4.247014 2.5385683 -3.833828 5.4166665
4.7549949 2.5499516 -3.9438701 3.4166665
5.0041533 2.5458107 -3.7850428 5.7083335
5.9305201 2.4594061 -3.8347578 17.307257
6.1627474 2.5260315 -3.7527103 13.588929
6.6339316 2.537863 -3.7759914 13.984834
6.9991632 2.5441132 -3.8451176 11.020249
7.3240414 2.5371513 -3.8436646 8
7.7949438 2.5531697 -3.75053 9.75
8.1300764 2.5456884 -3.7469449 9
8.5982666 2.5534723 -3.7895682 9.1899996
9.0806675 2.5301812 -3.6808822 9.833334
9.3067017 2.5032351 -3.770309 11.084658
9.9478064 2.4965293 -3.8224638 12.518001
10.177994 2.5383105 -3.7387826 7.125
10.584499 2.5413146 -3.8743985 10.944333
10.976444 2.5504732 -3.8378446 11.675167
11.393482 2.546113 -3.7331638 6.0416665
11.798951 2.5595019 -3.7368565 10.063972
12.25619 2.5664189 -3.7480028 5.7857141
12.567486 2.5785096 -3.8674152 5.0555558
12.982882 2.5997336 -3.8969257 10.3174
13.332973 2.515893 -3.8013098 15.860908
13.983138 2.4004486 -3.6509914 24.051001
14.192848 2.573777 -3.7939126 14.371572
14.592235 2.591198 -3.8463314 16.614426
15.002731 2.587121 -3.823597 14.230556
15.385101 2.5834076 -3.8436329 15.40181
15.848385 2.5844653 -3.8388686 13.002486
16.196745 2.588521 -3.819469 10.80241
16.591513 2.5851109 -3.813637 11.904846
16.951441 2.5844748 -3.7526457 13.872907
17.395184 2.5141692 -3.7964027 11.056844
18.669502 2.6222947 -3.9580269 15
18.951908 2.6263535 -3.8665688 15.522834
19.382885 2.6260076 -3.8272808 16.568024
19.780651 2.6249883 -3.7928505 14.489047
20.250896 2.5731325 -3.8743167 15.961884
20.598135 2.5440533 -3.8019278 19.269888
20.937351 2.560035 -3.6709027 19.858057
21.074825 -2.4309275 -3.4081573 42.043999
-2.0895534 -1.6629351 -3.3380198 43
-1.9768221 -1.722939 -3.4284906 60.900188
21.109575 -1.7808033 -3.3893282 41.711163
21.228951 -1.616195 -3.4771166 37
-2.0785277 -1.336404 -3.3643935 47.801605
-1.8764508 -1.3638804 -3.4441054 52.891956
-1.4164739 -1.3576788 -3.4341304 54.384949
-0.99627668 -1.3518544 -3.4081743 56.342922
-0.62485164 -1.3450221 -3.4294469 56.284836
-0.23457785 -1.3354861 -3.419786 53.77433
0.18581328 -1.3277678 -3.4302609 53.765503
0.61733776 -1.3294183 -3.4027965 52.426331
1.0421578 -1.3229603 -3.4084446 53.808334
1.3427536 -1.3234694 -3.4461219 51.63681
1.8085665 -1.3256636 -3.4194288 53.846966
2.2517118 -1.3169137 -3.4221838 53.485954
2.6055856 -1.3239702 -3.3962801 52.483875
3.0150566 -1.3272758 -3.3871677 52.086395
3.3661673 -1.3243713 -3.4006505 50.219387
3.8562346 -1.3208513 -3.415693 51.418606
4.1679811 -1.3224453 -3.4185481 51.038578
4.6212082 -1.322166 -3.3766816 48.768448
4.9976516 -1.3190818 -3.4053006 49.953625
5.4081988 -1.3148659 -3.4287241 48.350651
5.8252878 -1.3089702 -3.4296019 47.540672
6.1924081 -1.3034401 -3.3949015 47.969135
6.6081476 -1.3006698 -3.4240572 48.870213
7.0158639 -1.29963 -3.4085169 46.640217
7.385335 -1.3005276 -3.3967624 47.622738
7.8053508 -1.3006042 -3.421031 49.610329
8.195529 -1.3010468 -3.3873007 49.561169
8.62568 -1.2951255 -3.4414477 50.161118
9.0146112 -1.2952584 -3.4119434 48.89032
9.4006805 -1.2870851 -3.3606212 48.709732
9.7617397 -1.2776672 -3.385154 46.203022
10.172903 -1.2802542 -3.4045005 51.557602
10.598966 -1.2811993 -3.417485 52.579971
11.030768 -1.2805405 -3.3862844 48.91383
11.364071 -1.276531 -3.3974357 51.175896
11.777685 -1.2702433 -3.4318428 50.461491
12.200447 -1.2588601 -3.4205594 50.713093
12.628119 -1.2573041 -3.3608513 51.59338
13.008079 -1.2635187 -3.3909659 55.363853
13.437596 -1.2573829 -3.3977618 50.891113
13.811511 -1.2572453 -3.4006677 51.118595
14.234921 -1.2565269 -3.4230611 52.673393
14.643146 -1.2629189 -3.4134116 55.129494
15.005914 -1.2661045 -3.41271 53.662319
15.405404 -1.2671461 -3.4236519 51.204819
15.804028 -1.266662 -3.3650475 50.814205
16.196192 -1.2673153 -3.3450224 49.069679
16.608965 -1.2651666 -3.3800333 50.604744
17.019442 -1.2627212 -3.3612361 48.212029
17.440737 -1.2618182 -3.3852506 47.173248
17.783108 -1.256945 -3.4097221 46.33905
18.188158 -1.2702332 -3.4323292 46.208569
18.663568 -1.2699631 -3.3887813 46.775333
18.935051 -1.2686815 -3.4253495 44.025299
19.388878 -1.2747372 -3.3973765 46.136551
19.775137 -1.2685685 -3.4220428 44.851749
20.105639 -1.2653753 -3.4229372 45.023857
20.613384 -1.2562752 -3.4576271 43.095531
21.090504 -1.2977345 -3.357245 39.490902
21.24428 -1.3301742 -3.4296138 38.475891
-2.0666561 -0.9982478 -3.3881083 44.225559
-1.9135529 -0.98224086 -3.5051796 41.564915
13.840491 -1.1906821 -3.5421963 39.087502
14.346552 -1.1999369 -3.4727139 38.081001
21.151342 -0.9255271 -3.4011416 37.313118
21.236866 -0.99268842 -3.4111297 37.274197
21.728083 -1.0258435 -3.3042972 34.595001
24.223186 -1.0378168 -3.2345333 35.085999
-2.0739057 -0.59997344 -3.3676836 39.28968
-1.9431614 -0.62609082 -3.4882531 39.264126
21.121799 -0.58384401 -3.41519 35.637341
21.285973 -0.62254786 -3.3322668 33.886875
24.22464 -0.5890336 -3.2286992 33.585999
-2.0707469 -0.20511007 -3.3841398 34.570362
-1.9388599 -0.22491807 -3.4484861 34.210869
21.107729 -0.18430047 -3.4189229 32.95274
21.28647 -0.20702982 -3.3040471 32.726166
24.189529 -0.14339568 -3.2196455 32.085999
-2.0722096 0.20012429 -3.3719025 29.937794
-1.94078 0.20624574 -3.4276044 30.495321
21.110771 0.19152674 -3.4109638 31.173803
21.285719 0.24452677 -3.4055624 30.785103
-2.0695887 0.60360837 -3.3938975 25.740843
-1.9841242 0.58291173 -3.510102 26.582748
21.167343 0.62947422 -3.3574412 28.408649
21.24296 0.59969842 -3.4680228 28.461288
-2.0667272 0.98867297 -3.4065418 22.641516
-1.9684433 0.9680723 -3.444407 22.453434
2.6997871 1.1830022 -3.238245 25.099501
21.165218 1.0107107 -3.3773479 26.655487
21.253511 1.0254402 -3.4569085 26.528
-2.0701358 1.3789463 -3.4016786 18.135075
-1.9647309 1.4154246 -3.4696484 14.176785
-0.16678298 1.2708863 -3.4257698 19.563189
2.2563396 1.3247608 -3.2064745 15
2.7558873 1.2729155 -3.299679 21.907499
2.8320439 1.2894145 -3.4863183 22.136055
3.4968815 1.3851147 -3.5909481 24.098751
3.8702826 1.3539048 -3.5669503 18.372143
4.2612557 1.3700985 -3.5398309 21.362787
4.5740891 1.3532751 -3.514385 17.792143
4.995111 1.3361348 -3.464319 21.597834
5.3824601 1.3076676 -3.4333479 19.71176
5.7920299 1.2959167 -3.3890655 20.360868
6.2311301 1.3007517 -3.3292918 18.257864
6.5794563 1.3323292 -3.2957621 18.960608
6.9828205 1.3395183 -3.2521524 21.285625
7.2924032 1.3172275 -3.2607918 23.31225
7.6605849 1.3600914 -3.2015209 24.061501
11.035182 1.5354265 -3.444603 15.855901
11.4255 1.52353 -3.4405136 13.720626
11.689953 1.5253912 -3.4074817 12.044111
16.681696 1.4710561 -3.4276602 18.453176
21.158333 1.4047507 -3.3898339 24.932787
21.247297 1.4032086 -3.428694 25.026192
-2.0759261 1.7355989 -3.4140391 16.899328
-1.9805155 1.769364 -3.468492 19.513332
-0.48396772 1.9212315 -3.4087589 16.8591
-0.231195 1.9568956 -3.3823056 13.358983
0.077169299 1.8261399 -3.5119343 22.1015
1.5115495 1.7332742 -3.5482936 17.098
1.7609963 1.7765251 -3.5309808 19.813999
2.2980928 1.854959 -3.391592 17.6985
2.5927005 1.9015907 -3.3722305 15.793062
2.904089 1.8704644 -3.4767666 14.515667
3.3241208 1.7865019 -3.3497672 15.0189
3.9099395 1.7849191 -3.2913847 19.038168
4.1643791 1.7888042 -3.2529778 12
4.585494 1.7913808 -3.2402239 15.4585
4.9437823 1.7972028 -3.2213888 13.023
5.4130945 1.9762269 -3.3605185 10.938276
5.6931553 1.9782805 -3.4047077 14.477647
9.1172733 1.9658873 -3.3765209 12
9.3608055 1.9720429 -3.3391533 7
9.7537394 1.9846594 -3.4183748 4.6306901
10.935153 1.6444643 -3.4312119 20.727499
13.869155 1.9969105 -3.2171001 3.3333333
16.751997 1.9841 -3.3475695 23.085501
20.645226 1.9084464 -3.5821705 12
21.161163 1.7872918 -3.3730431 23.060469
21.266033 1.746496 -3.4680624 21.579166
-2.0922027 2.1503408 -3.42012 15.517883
-1.9324068 2.3143017 -3.4070415 10.6001
-0.079281785 2.1661851 -3.4451084 18.180943
0.0063478947 2.3388228 -3.4969258 14.875
2.7499883 2.1731272 -3.2790153 19.5928
2.8600683 2.1843541 -3.4513798 16.942272
5.2567592 2.0952349 -3.473521 6.351851
5.8657823 2.2020502 -3.3574879 16.267782
9.1396761 2.2639635 -3.408323 11.568254
9.2724876 2.1880028 -3.3913755 12.7839
9.7716627 2.1585958 -3.4634113 16.6525
13.192253 2.2003853 -3.4802041 17.666666
13.36767 2.1972966 -3.3749034 15.327174
13.839396 2.0891361 -3.4108388 11.68452
17.110968 2.1444356 -3.4773052 21.08625
17.396944 2.1685653 -3.4153361 14.761488
17.740488 2.0419476 -3.4986784 10.556222
20.791813 2.3897605 -3.4788094 7.25
21.129049 2.2307243 -3.4299705 21.124395
21.240793 2.1462257 -3.3841605 18.931438
22.024593 2.0757859 -3.5723224 15
-2.0757432 2.4525332 -3.3643737 10.05075
-1.8048487 2.45223 -3.4215775 7.4869661
-1.4292063 2.4665673 -3.3928986 8.5168333
-1.1563654 2.4658563 -3.4030638 4.6666665
-0.077009819 2.4382143 -3.304831 10.535714
0.21078867 2.4926231 -3.403904 10.387375
0.58200294 2.4788575 -3.3295071 9.5777779
0.92361796 2.4918272 -3.4090781 8.3999996
1.2501955 2.4788532 -3.3361518 11.333333
1.7225052 2.4739728 -3.3258605 10.375
2.0809014 2.4789593 -3.4149494 15
2.9863579 2.4689453 -3.4779186 6.0599999
3.4490275 2.5138755 -3.487361 5.5
3.735218 2.5038993 -3.4214973 7.3333335
4.1429644 2.5107496 -3.2470961 9
4.6489735 2.5360518 -3.4460485 6.8125
4.972775 2.5261786 -3.4593155 3.8333333
5.8921599 2.4885488 -3.3809519 15.778521
6.2287421 2.5205271 -3.3436084 11.2122
6.5215859 2.5265036 -3.4415269 9.9457827
6.9279399 2.5293944 -3.4757605 6.6111112
7.434895 2.5279586 -3.370115 8
7.8090105 2.5306709 -3.402576 7.6833329
8.2236195 2.5302215 -3.3499818 10.318182
8.654459 2.5350678 -3.3916328 9.625
8.9507732 2.5391736 -3.3759964 11.909101
9.2337122 2.4943314 -3.4037592 11.972221
9.937602 2.5114021 -3.4066525 14.822001
10.23997 2.5199707 -3.3619068 14.018167
10.57106 2.5033505 -3.4076381 14.221701
11.008201 2.5171359 -3.3543022 15.504483
11.514687 2.5293217 -3.4343688 9.1000004
11.861243 2.543745 -3.4125514 10.513625
12.192727 2.5475943 -3.4188406 9.1505718
12.5773 2.5492346 -3.3899901 7.2934289
13.022731 2.5431821 -3.4305522 12.322786
13.303253 2.4964323 -3.449156 13.510416
13.957816 2.5561619 -3.4238312 12.833333
14.217606 2.5642607 -3.3552439 9.958333
14.628642 2.5624957 -3.4009552 11.5
15.040051 2.560185 -3.3903568 11.805556
15.493548 2.557229 -3.4393878 13.243235
15.823449 2.5579414 -3.380161 6.5416665
16.23102 2.5645905 -3.4251876 10.7549
16.623491 2.5714471 -3.4797204 7.883111
16.998203 2.5704978 -3.4290128 11.996619
17.362913 2.5154223 -3.4488425 9.5388575
17.732315 2.4030979 -3.5944235 0
18.757151 2.6001093 -3.3828471 14.014834
19.071257 2.5912981 -3.3031819 14.522666
19.420105 2.60482 -3.3428586 12.9182
19.809502 2.6115561 -3.3898463 11.0091
20.154163 2.6188042 -3.4135849 15.257309
20.602039 2.6246104 -3.4144452 12.991482
21.109589 2.5702567 -3.4479129 18.521196
21.26021 2.4695458 -3.4737971 17.571642
-2.069988 -1.7730871 -3.0327411 52.201904
-1.9594002 -1.9250908 -2.9289987 60.69725
21.174511 -1.6164891 -3.0311654 39.126278
21.309034 -1.6496334 -2.9156685 38.262249
-2.0928049 -1.3491827 -2.9978108 51.377323
-1.843401 -1.3881446 -3.0284739 53.552036
-1.3842349 -1.3775932 -3.0140343 55.599491
-1.0336055 -1.3676546 -2.9628236 55.655624
-0.63726944 -1.3528564 -3.0053813 52.13063
-0.16949773 -1.3537861 -2.9693444 54.815613
0.18880418 -1.343843 -3.0452788 54.341415
0.56541276 -1.3425361 -2.9822865 50.372501
1.016353 -1.3382396 -3.0253084 51.625217
1.4085252 -1.3421454 -3.020026 50.073215
1.8384588 -1.3393296 -3.0326962 55.133076
2.1954033 -1.3456914 -2.9699931 53.2229
2.6363196 -1.3432487 -2.9748814 51.149464
3.0145285 -1.3452913 -3.0186226 52.574669
3.416667 -1.3440518 -3.0120215 52.261658
3.8043795 -1.3463564 -3.0335534 51.389568
4.187901 -1.3452868 -2.9842081 50.991962
4.5718288 -1.3409265 -2.9849484 49.927109
5.0052228 -1.3379441 -3.0028105 48.555836
5.379499 -1.3337317 -3.0449471 50.602135
5.8311939 -1.3277553 -3.0430896 48.879757
6.1922779 -1.3261453 -2.9825418 49.238636
6.6029177 -1.3199741 -3.0124977 48.330299
6.9884601 -1.3233236 -3.0033131 48.406384
7.3753791 -1.3180037 -3.0449073 46.553902
7.7883768 -1.3195788 -2.9917226 46.626301
8.2171383 -1.315967 -3.0270963 46.830776
8.5527954 -1.3178507 -2.9536836 48.630501
9.0311384 -1.3090591 -2.9803503 49.45026
9.386178 -1.3047922 -2.9952936 48.340794
9.8251953 -1.3061091 -3.0246255 52.368328
10.195993 -1.2986923 -3.0042021 48.293137
10.623079 -1.2932845 -2.9475918 50.421806
11.035389 -1.2952107 -3.0127192 52.235779
11.412881 -1.2883983 -2.9911604 49.641281
11.818819 -1.2764775 -3.0277021 46.780678
12.235197 -1.2704257 -3.028991 50.070324
12.639053 -1.2682817 -2.9407306 49.684772
13.037481 -1.2748061 -2.9744661 48.74826
13.45328 -1.2798071 -2.9923871 52.067711
13.82242 -1.2743334 -3.0249352 50.407314
14.207861 -1.2755216 -3.0088279 50.855312
14.594705 -1.2721463 -3.0438595 49.591461
15.012674 -1.279893 -3.0476561 51.90136
15.461007 -1.2860152 -3.0026309 51.76292
15.828598 -1.2845086 -3.0163782 50.255138
16.225929 -1.2874116 -2.9592004 51.432156
16.622826 -1.2843187 -2.9430499 48.738384
16.999744 -1.2847617 -2.9887784 47.300694
17.409536 -1.2813851 -2.9455328 47.489685
17.759865 -1.282481 -2.9614727 46.954964
18.196211 -1.2891175 -3.0021136 46.521873
18.585991 -1.2908115 -3.0052738 47.286545
19.000484 -1.2840468 -3.0312002 45.452099
19.420103 -1.2938323 -3.0230582 45.180599
19.829472 -1.285182 -3.0221059 45.520218
20.217167 -1.2804086 -3.0298691 45.025497
20.502752 -1.2758552 -2.9903784 43.541252
21.090687 -1.3293809 -2.9963541 40.204132
21.301291 -1.4101489 -2.9039485 38.285713
22.468876 -1.2089835 -2.9629309 35
-2.1134861 -1.0198642 -3.0029404 46.125774
-1.9483042 -1.076807 -3.1102009 33
21.161335 -0.97789556 -2.9983842 37.287086
21.267778 -0.98648095 -2.9523034 37.428951
21.7833 -0.88285244 -2.8114047 34.5
22.532602 -0.9614718 -2.8342042 34.5
23.156414 -0.9671064 -2.8772347 34
-2.1164317 -0.61792719 -2.9897017 40.529903
-1.9658403 -0.66464305 -3.1019249 32
21.168978 -0.54245818 -2.9667568 34.637413
21.306139 -0.59318924 -2.936851 34.431046
21.715626 -0.65664554 -2.8773935 33.5
22.451385 -0.61633563 -2.8846154 33
23.128328 -0.70951158 -2.8654902 33
-2.1165111 -0.21124879 -3.0068974 35.254974
-1.983983 -0.28912044 -3.1592083 31
21.156225 -0.17133719 -3.0038204 32.471619
21.286703 -0.17014879 -2.9984696 32.294235
21.768892 -0.12772539 -2.8787961 31.5
22.347971 -0.13398048 -2.8074605 31.5
25.498072 -0.20933338 -2.8902848 31.0945
-2.1147199 0.18576033 -3.0075531 30.053114
-1.984827 0.11405826 -3.0504608 30
21.154892 0.22922838 -3.0045147 30.489487
21.277914 0.2123549 -3.0347364 29.276361
21.753807 0.27275988 -2.8753653 30
22.316996 0.27708015 -2.8023553 30
24.037781 0.13282943 -3.1976843 31.086
25.489437 0.38391644 -2.8795083 29.0945
25.620281 0.10001805 -2.8942235 30.0945
-2.5302696 0.57814717 -3.0814457 27.0945
-2.1148915 0.57924551 -2.9985147 26.096695
-1.8905158 0.50579566 -3.0378714 29
21.147758 0.61480016 -3.005888 28.550665
21.278345 0.61507839 -3.0020165 26.454546
21.620022 0.65797317 -2.8590422 28.5
24.0662 0.43283299 -3.198638 30.086
-2.559926 0.93527579 -3.1392784 26.0945
-2.1151009 0.98604095 -3.0017989 21.966499
-1.9098434 0.91525 -3.0375624 28
21.140993 1.0019532 -2.9934385 26.853611
21.301977 1.0041413 -2.9974871 24.335184
22.436699 0.80504227 -2.9864397 28.5
23.933525 0.84913504 -2.8282719 28.5
-2.5464649 1.2660286 -2.9748325 25.0945
-2.10431 1.3753141 -3.0078223 17.548067
-1.8137093 1.3177581 -3.0137501 27
-0.20954156 1.2812508 -2.9640353 21.180319
2.1704865 1.3417221 -3.0222797 18.616705
2.7483978 1.2945483 -3.0172031 20.2603
2.846175 1.3115697 -3.002671 21
7.1483817 1.3415715 -3.1819899 20.088499
7.4337029 1.332649 -3.1801929 17.926786
7.7425342 1.3441372 -3.1380501 18.656374
8.1846962 1.3226604 -3.1292622 21.720901
8.6351881 1.2952826 -3.0629349 19.729519
9.013442 1.2750115 -3.0188732 20.265814
9.3764334 1.2729052 -2.9704859 17.314135
9.7220955 1.2753179 -2.9471927 21.046785
10.180408 1.3088803 -2.8926845 18.653667
10.609378 1.3405963 -2.8627038 21.467474
10.946876 1.5152771 -2.9928269 18.461325
11.42495 1.4812579 -2.9588234 14.345596
11.720922 1.4569267 -3.0391207 19.6563
21.139668 1.3962524 -3.0106618 25.340929
21.305779 1.4243212 -2.9621403 20.777779
22.306595 1.333117 -2.9755311 26.5
23.833136 1.4153963 -2.8210821 26.5
-2.1141028 1.7893671 -3.0056691 17.179575
-1.8634992 1.725594 -3.0847549 26
-0.56925243 1.9171021 -3.0681696 15.799189
-0.2582826 1.9375992 -3.049011 17.944221
2.3551908 1.9258194 -3.1361504 13
2.5706 1.9424065 -2.9700031 8.3450832
2.8837471 1.9557551 -3.1426208 15
4.4454556 1.8310511 -3.1794417 19.048
5.0544338 1.8565093 -3.1026251 10.666667
5.3899708 1.9259927 -3.0320332 11.52864
5.7200518 1.9073335 -3.017621 12.1345
6.1395755 1.799029 -3.053726 16.716333
6.5474 1.7820088 -3.0104766 15.046201
6.9584198 1.795658 -2.9891758 17.802687
7.4003477 1.7825512 -2.9003606 16.473799
7.7948723 1.783179 -2.8912568 16.247299
8.2648907 1.7775202 -2.8553383 15.04125
8.5133591 1.7964684 -2.8414257 14.558301
9.1382093 1.8910153 -2.9001319 16.643499
9.3716602 1.9678915 -2.9895782 11.893867
9.7112446 1.9781344 -3.0713418 12.762
10.733971 1.6186225 -3.1548538 19
10.888834 1.6643128 -2.9902394 19.02025
11.693839 1.6056784 -2.9776764 28.050501
13.496785 1.9784613 -2.9138093 16.930698
13.770147 1.9721615 -2.9084704 17.221001
21.1318 1.8015242 -2.9579861 23.274956
21.263863 1.7696978 -2.9930778 19.174999
22.148342 1.7194377 -2.9515676 25
23.755951 1.9800364 -2.8075113 24.5
25.369591 1.8696504 -2.8561575 24.0945
-2.0918016 2.2199905 -2.9852014 11.961444
-0.15045153 2.1562459 -3.020967 19.785139
2.7482235 2.1458645 -2.9615645 19.450352
2.8471653 2.1621399 -3.0812619 15.892799
5.1811895 2.1493695 -2.9709587 2.9619048
5.2347751 2.1012583 -3.1624413 4.5666666
5.8249965 2.2105398 -2.9649079 18.648706
9.1508989 2.2191606 -2.906512 11.886793
9.2506762 2.1800525 -2.9984853 11.067763
9.8584251 2.3394134 -2.973352 13.550875
10.831493 2.3992064 -3.0270786 9
13.109001 2.3110707 -2.9275019 17.528833
13.283276 2.2050915 -2.9814334 16.826277
13.821218 2.102587 -2.9649591 11.378445
17.063131 2.1226566 -2.9489753 21.085751
17.372181 2.1336217 -3.0047865 14.759624
17.74177 2.051544 -3.0422189 10.969544
21.126366 2.222429 -2.9718301 20.982967
21.275713 2.1874359 -2.9838693 14.557818
21.878183 2.1249099 -2.8421974 23.084499
-1.8052545 2.436661 -3.0857525 6.4741855
-1.4278635 2.4512093 -3.0052857 5.0714288
-0.036269825 2.4421442 -2.8961086 10.333333
0.18101607 2.4768195 -2.921386 8.3000002
0.48602378 2.4739826 -2.928086 6.5
0.97283393 2.4558203 -3.0792663 9.666667
1.2658424 2.4612927 -2.9915936 9
1.8473833 2.4612563 -3.0726161 8
2.7895284 2.4077222 -3.0093684 7.5
3.0170252 2.4713037 -3.0399196 6.2095237
3.4689941 2.4957187 -3.0796852 3.8888891
3.7962761 2.4914625 -2.9904728 4.7777781
4.2328992 2.4939702 -3.0209639 7.5
4.537497 2.5013256 -2.9215899 6.8000002
5.0213723 2.5104449 -3.0191586 7.0833335
5.8258691 2.4762042 -3.0575013 13.973521
6.1789484 2.5050929 -2.9490867 10.2126
6.6072135 2.502279 -2.9500585 6.5999999
6.8859558 2.5084019 -3.149374 9.333333
7.4874291 2.5119047 -3.0059607 6.7222223
7.8127341 2.5137007 -2.9903018 9.41782
8.2460613 2.5159326 -2.988848 9.7222223
8.5442486 2.5221846 -2.9661858 9.2857141
9.0374823 2.5118656 -2.9870079 10.801587
9.2732887 2.4717348 -3.0813737 7.75
9.8870382 2.4843886 -2.9656384 12.129444
10.195855 2.4990027 -3.0340528 16.110666
10.575788 2.4970489 -3.0891891 9.8112001
10.964217 2.4930754 -2.9178002 7.5555558
11.456471 2.5067747 -3.0128059 6.1190476
11.915052 2.5131323 -3.0054679 6.9000001
12.209036 2.5258808 -3.0028172 7.9054503
12.561761 2.5325654 -2.9597321 6.0999999
13.046266 2.5327201 -2.958595 10.869643
13.254119 2.4898167 -2.9903064 14.155143
13.987156 2.5530801 -3.0569286 18.025501
14.167535 2.5491142 -3.0241563 11.443624
14.633327 2.5441444 -2.9726639 11.224875
15.00253 2.5358584 -3.0268335 6.75
15.368381 2.5400901 -3.0000741 12.514
15.813429 2.5345306 -3.0157559 6.0714288
16.258297 2.5483544 -3.0253668 8.5428333
16.593876 2.5576515 -3.0658498 9.762188
16.990301 2.5551486 -3.0374777 12.011958
17.347122 2.5120075 -3.0501165 8.4719439
18.62813 2.5726359 -2.9489987 13.515167
19.046915 2.5852838 -2.9316542 10.084857
19.405447 2.5964341 -3.1068907 11.177792
19.76548 2.5977669 -3.0069969 12.90875
20.116049 2.5919211 -2.9622247 9.7645826
20.563604 2.6099014 -3.0638866 13.348208
21.083191 2.5586145 -2.9925361 15.068881
21.253376 2.48838 -2.9468594 12.53038
-1.9605044 -2.1057599 -2.6170499 61.046753
-2.1422987 -1.7157435 -2.6016715 51.850002
21.391891 -1.6986437 -2.7358627 40.896221
21.600246 -1.6371559 -2.7386208 37
-2.1404231 -1.3623836 -2.587991 51.337517
-1.8567759 -1.4046355 -2.6385703 50.491234
-1.4085962 -1.3838327 -2.6373427 51.964146
-0.95217931 -1.3798298 -2.5315387 54.230236
-0.55772775 -1.3707031 -2.6199901 53.5466
-0.11524422 -1.3690882 -2.6032214 55.682899
0.18334079 -1.3611078 -2.6518576 51.318237
0.56082904 -1.3595098 -2.6490445 50.907612
0.99802417 -1.3585219 -2.6269007 50.51276
1.3733293 -1.3623562 -2.6718872 51.557251
1.8485608 -1.3533472 -2.6157606 51.273457
2.2119675 -1.3664658 -2.5542874 53.482567
2.6112223 -1.3618563 -2.6279306 53.347836
3.0218582 -1.3666813 -2.6009619 55.518745
3.4128485 -1.3623658 -2.6198239 52.895664
3.797066 -1.3621523 -2.5914817 52.298309
4.2238297 -1.3567133 -2.5984936 50.933041
4.6394444 -1.3584791 -2.5484366 50.282917
4.9731731 -1.3535626 -2.6085114 49.778595
5.4072747 -1.3495721 -2.61238 49.37146
5.7872887 -1.3462274 -2.6074221 49.723682
6.1787019 -1.3425845 -2.6356139 47.549751
6.5897894 -1.3413984 -2.6102359 47.635181
7.0068235 -1.3411347 -2.6142571 46.373486
7.4273467 -1.3420476 -2.5950725 48.998581
7.7998786 -1.3335128 -2.6232297 45.914818
8.1965818 -1.33534 -2.5913393 47.181053
8.5653734 -1.3318037 -2.5775101 47.005505
9.0239954 -1.3278506 -2.5922244 48.975014
9.4007149 -1.3218871 -2.575453 46.844841
9.7646551 -1.3206257 -2.6177695 50.844883
10.196629 -1.3141401 -2.6326406 47.41386
10.605493 -1.3141094 -2.5961008 50.800465
11.003278 -1.31062 -2.5914395 48.485668
11.453504 -1.3052065 -2.5999787 50.954987
11.814864 -1.2971965 -2.5849166 52.289833
12.199414 -1.2844152 -2.6313474 50.255745
12.588811 -1.2818073 -2.6054323 49.030071
12.970702 -1.2856847 -2.5878923 50.38279
13.42412 -1.2956417 -2.6049905 52.838284
13.84065 -1.2918009 -2.5997941 53.313869
14.207616 -1.297075 -2.6089225 52.516094
14.596924 -1.2943995 -2.6212432 52.568329
15.023174 -1.297392 -2.6279571 52.441555
15.379661 -1.3072417 -2.5869851 53.961777
15.774677 -1.3060542 -2.5979352 52.264137
16.227049 -1.3042263 -2.5802495 52.896282
16.616104 -1.3069333 -2.5837102 53.066124
17.021765 -1.3046058 -2.5725074 49.479088
17.390062 -1.3050251 -2.5707264 49.323761
17.794006 -1.3077426 -2.5809929 48.975224
18.231129 -1.3126017 -2.5644069 46.508415
18.63843 -1.3024166 -2.6725905 45.5849
19.023384 -1.3070426 -2.6617134 46.070648
19.355331 -1.3133579 -2.5495427 46.024345
19.785706 -1.3107878 -2.6339552 44.858288
20.192177 -1.3083725 -2.5448091 44.468388
20.664333 -1.2994417 -2.6011112 44.779121
21.018988 -1.2973096 -2.6311429 41.193001
21.433193 -1.347365 -2.7098808 39.146496
21.759134 -1.3335707 -2.6174743 39.464172
22.127316 -1.3987937 -2.5314326 37.4189
23.077805 -1.2872453 -2.5633759 38.002499
23.476839 -1.2301655 -2.4559259 35
-2.1657269 -1.0370784 -2.59901 48.080673
-1.8678079 -1.0633789 -2.7661114 33
21.143894 -0.99706715 -2.7436481 37.018898
21.389 -0.97475266 -2.7244215 37.455051
21.780331 -0.99461538 -2.6612303 36.595757
22.21629 -1.0675542 -2.5975785 36.609081
22.611679 -1.0113666 -2.580503 35.650002
22.971228 -1.0219061 -2.520751 35.277779
23.405672 -0.97431105 -2.4466879 35.136364
23.759851 -0.98097384 -2.5871162 34.25
24.768253 -1.0533174 -2.7014077 34
-2.1614633 -0.62746871 -2.5981069 39.98436
-1.8854446 -0.65164757 -2.7530689 32
21.167383 -0.58244497 -2.7549772 35.222221
21.377001 -0.59106684 -2.7138846 35.174274
21.765528 -0.57310432 -2.6443202 34.091785
22.151976 -0.62892956 -2.5831947 33.982166
22.583139 -0.62310952 -2.5649633 34.173077
22.984673 -0.65230829 -2.5451894 33.583332
23.444628 -0.62322932 -2.4424622 33.25
23.841026 -0.66595966 -2.7261887 33
24.283524 -0.6170162 -2.4245687 32.001999
24.67312 -0.77444053 -2.6856234 33
-2.1673949 -0.20752719 -2.5913408 35.22892
-1.8804445 -0.2808187 -2.6739349 31
21.146847 -0.24179426 -2.7356017 33.318901
21.394476 -0.19152312 -2.7055256 33.055798
21.798515 -0.1810208 -2.6451285 32.936207
22.186596 -0.18546116 -2.5956087 32.929028
22.580835 -0.15778071 -2.5447383 32.664787
22.968027 -0.15786459 -2.5083349 32.608379
23.372375 -0.13358286 -2.4638696 32.64394
23.718636 -0.12788585 -2.6162875 30.5
24.091934 -0.02652207 -2.5088396 29
24.483616 -0.024984134 -2.5172176 30
25.05619 -0.074101262 -2.5538332 30.666666
25.316561 -0.23096499 -2.4348512 30
-2.1664815 0.2065213 -2.6275895 29.675577
-1.9026332 0.12566519 -2.6865921 30
21.161396 0.22327133 -2.7438273 31.09091
21.391781 0.20538557 -2.6935859 31.237337
21.79438 0.21560428 -2.6291409 31.050423
22.176136 0.20057531 -2.5850117 31.272655
22.582502 0.22734579 -2.5249913 31.030931
22.999851 0.21511476 -2.4898715 30.867411
23.361338 0.21160027 -2.4455132 31.121162
23.747345 0.17678073 -2.5094066 30.071428
24.218313 0.28664374 -2.5002949 29.611113
24.490473 0.21802753 -2.4791343 28
25.144062 0.29935738 -2.4890876 30
25.300945 0.16839251 -2.4220901 28.5
26.11306 0.12595525 -2.5271435 31
-2.1654997 0.57422996 -2.6137278 25.809761
-1.9153528 0.49809694 -2.6721802 29
21.139748 0.63760561 -2.7518411 28.681818
21.392248 0.59068322 -2.6765046 29.587324
21.806194 0.60011691 -2.6132021 29.387487
22.18292 0.58872676 -2.5714238 29.452572
22.595144 0.60993153 -2.5033123 29.032
22.995432 0.61371285 -2.4679129 29.09091
23.349846 0.57883447 -2.4521186 29.006159
23.748491 0.55566764 -2.4933355 27.708334
24.211945 0.56876439 -2.4931452 28.166666
24.569252 0.64480913 -2.558048 27.166666
24.957766 0.51323396 -2.6162691 29.5
25.29393 0.57117921 -2.4095855 27
26.103603 0.60011214 -2.522398 29.5
-2.1648068 0.98341119 -2.6159689 21.809555
-1.9071698 0.89467096 -2.5230598 28
21.152687 1.0045137 -2.7158213 26.84375
21.386097 0.97996211 -2.6509893 27.609093
21.790232 0.97573131 -2.5892458 27.83305
22.199249 0.97869653 -2.5428665 27.753656
22.599541 0.98934615 -2.4848619 27.549259
22.983086 0.99157327 -2.4514768 27.484987
23.371929 0.96330017 -2.4695103 27.151318
23.744108 0.98245192 -2.4801924 25.25
24.179689 1.0339673 -2.5137205 25.875
24.654621 1.0394787 -2.5770576 25.75
24.933842 1.0465517 -2.4700937 27.5
25.213614 0.84288204 -2.4113269 26
-2.1505644 1.3569373 -2.6321115 16.952372
-1.9544435 1.2631764 -2.6480913 27
-0.24780819 1.2605822 -2.5528569 20.632025
1.9895763 1.3265219 -2.7688661 25.5
2.1206427 1.3320632 -2.6018472 18.501009
2.7303951 1.2860447 -2.6423516 22.188086
2.808553 1.2782421 -2.606761 19
10.659616 1.4715074 -2.6225231 20.361666
10.957842 1.4692131 -2.6335514 16.443541
11.393294 1.4498121 -2.6304572 14.736622
11.840187 1.3408602 -2.6753657 21.725334
12.168272 1.27914 -2.6355367 18.70796
12.599402 1.2887942 -2.5918055 19.795343
12.981238 1.2837722 -2.540118 20.763964
13.346764 1.3365233 -2.4839883 19.629787
13.825524 1.3292722 -2.4643316 12.950625
14.109718 1.3289202 -2.4290187 17.03775
14.593685 1.3013408 -2.4166708 19.525749
15.076534 1.4061395 -2.4271507 20.101999
21.155302 1.3934053 -2.7196894 25.860001
21.387905 1.3850194 -2.6347175 26.282869
21.79966 1.3824497 -2.5685449 26.145859
22.194475 1.38055 -2.5205376 26.420839
22.578682 1.3792826 -2.4781482 26.352762
22.94899 1.4094535 -2.452054 25.913122
23.350721 1.4017202 -2.4960771 24.583216
23.762589 1.3926952 -2.4620633 22.75
24.138191 1.4656067 -2.4814591 23
24.803596 1.4924649 -2.4724417 26
25.647629 1.3839756 -2.4843855 26.584
26.086029 1.2252979 -2.5148497 27.5
-2.1601324 1.7660725 -2.6345923 19.503996
-1.9509497 1.6640069 -2.479744 26
-0.56882274 1.8758856 -2.5740004 13.864676
-0.2227639 1.9520814 -2.5399992 19.051374
2.3204169 1.9030763 -2.6460049 11.571472
2.6304657 1.9518046 -2.5330842 17.333366
2.8149381 1.9571357 -2.7032828 17.333332
5.1586709 1.9735855 -2.5902779 3.3666663
5.404891 1.9446493 -2.5824919 9.9386435
5.7038484 1.9468943 -2.6051593 12.52381
8.311656 1.6627047 -2.7966251 19.088499
8.5824318 1.7589997 -2.7625771 17.084665
9.1009264 1.9446779 -2.5716054 13.833499
9.4060154 1.8638445 -2.6638746 13.44721
9.7895603 1.8376838 -2.6456814 12.833643
10.195804 1.8139623 -2.5925412 18.078667
10.700567 1.7117659 -2.581429 16.251501
10.918669 1.7018487 -2.5624962 19.005724
11.481905 1.7278292 -2.519587 21.042801
11.662554 1.7122418 -2.4865746 16.02725
12.14407 1.7600296 -2.4326541 16.526749
12.45853 1.7478001 -2.4160519 19.052999
13.472821 1.9548296 -2.6315405 14.032316
13.69601 1.9555718 -2.5485647 15.017083
16.170586 1.8400779 -2.4855056 22.086
17.437395 1.9834505 -2.6300151 7.1237411
17.705898 1.994509 -2.6143963 11.678479
21.145266 1.7620691 -2.7247894 23.916666
21.379932 1.7885482 -2.6090145 25.073389
21.792763 1.8064878 -2.5387166 24.478706
22.20801 1.7961112 -2.5031023 24.314486
22.585987 1.7989619 -2.4549925 24.235331
22.97204 1.7924801 -2.4448075 24.346678
23.345478 1.7577622 -2.5422881 23
23.770462 1.7227905 -2.4520617 20.75
24.080873 1.7210147 -2.4920952 22.5
24.687349 1.7807204 -2.448154 25
26.081264 1.6920266 -2.4459248 26
-2.1451893 2.1733172 -2.6157882 8.9643326
-1.8579944 2.3851936 -2.475909 6.3333335
-0.15979092 2.1417055 -2.5841134 19.290579
2.7161119 2.1926904 -2.5902977 18.031826
2.8147335 2.1885979 -2.6249702 16.166666
5.1414533 2.1261101 -2.6152511 1.7808731
