# .PCD v0.7 - Point Cloud Data file format
VERSION 0.7
FIELDS x y z intensity
SIZE 4 4 4 4
TYPE F F F F
COUNT 1 1 1 1
WIDTH 1177
HEIGHT 1
VIEWPOINT 0 0 0 1 0 0 0
POINTS 1177
DATA ascii
12.509611 -0.14107457 76.594147 53.9035
15.151907 -0.12716763 76.632492 52.184074
15.222763 -0.19153324 76.551735 53.120728
18.266687 -0.39101037 76.578156 50.326324
18.615555 -0.37461942 76.574806 51.889618
18.952557 -0.36000335 76.602882 53.135624
19.463053 -0.21178108 76.592896 50.606945
19.639286 -0.2350724 76.687553 46.540367
-7.6258497 0.22638649 76.704178 24.532639
-7.5507956 0.15765598 76.607704 20.47694
-5.505477 0.22481914 76.569412 17.090641
-2.8443086 0.38141811 76.415253 27.002501
-2.5947137 0.27273178 76.52034 23.984348
-2.0657568 0.22261584 76.623405 24.180855
-1.9870735 0.089420915 76.599037 22.474913
0.7894876 0.079060651 76.538292 31.721533
2.7813911 0.26152793 76.571976 30.215523
2.8603387 0.17401572 76.58416 32.407806
12.341634 0.29766193 76.579437 42.024502
12.560772 0.19976753 76.626778 46.120903
15.150321 0.27249414 76.594368 47.131512
15.214561 0.14340694 76.586487 48.88575
18.351002 0.32198435 76.480415 62.507
19.499645 0.19194131 76.5812 47.048454
19.628752 0.10503312 76.657074 44.721397
-7.626946 0.58045107 76.664764 20.840384
-7.4786434 0.64289844 76.620941 15.421911
-6.9739852 0.76007217 76.594742 13.808973
-6.5799232 0.77994126 76.620094 11.949067
-6.2474689 0.78691131 76.578659 16.300602
-5.7727661 0.77245593 76.545715 17.863693
-5.5082531 0.61316669 76.588417 13.024768
-2.5993364 0.41503328 76.525452 21.87443
-2.0885231 0.62457603 76.601746 19.167299
-1.9932859 0.77426887 76.495552 19.039499
2.7772019 0.65895486 76.632774 20.884762
2.8433452 0.56528533 76.596939 24.802479
5.1060944 0.4925468 76.722595 27.0375
12.539753 0.45985532 76.558441 40.021
15.139738 0.6592558 76.593681 40.246288
15.229182 0.40911651 76.475914 46.519997
18.313622 0.51283449 76.671326 57.273212
19.491358 0.57933265 76.599434 41.999573
19.618517 0.45693836 76.7033 40.439392
21.85614 0.65263009 76.488823 38.0625
-7.3005652 0.82331753 76.525871 7.5
-7.0240798 0.82202208 76.56665 7.8000002
-6.6262732 0.81921327 76.70314 5.958333
-6.1828351 0.81163979 76.565216 9.483613
-5.8346019 0.81979328 76.605743 13.761581
-2.5859888 0.97425365 76.574295 19.0375
-2.1052501 0.95565003 76.601822 17.431341
-1.7905004 1.0646887 76.594002 12.625491
-1.3676323 1.0795826 76.611839 12.280319
-0.99712205 1.0941101 76.588821 12.990693
-0.58744413 1.1132026 76.613937 12.679238
-0.19680569 1.1313736 76.594704 12.338295
0.17123505 1.1510649 76.614914 11.639158
0.56083095 1.1749665 76.571259 10.785316
0.91239864 1.1894324 76.53447 12.819525
2.7782698 1.018142 76.628883 16.378012
2.8329027 0.98802352 76.573708 18.659409
15.130116 1.0579271 76.578751 28.102818
19.478622 0.97464794 76.605324 34.934521
19.609289 0.82449222 76.750343 37.636364
21.499083 0.89389849 76.473763 34.020664
21.785448 1.0053184 76.449799 32.480335
22.298824 1.1237314 76.602417 31
0.68775135 1.207903 76.74646 16.268167
1.0131896 1.2193117 76.599747 11.557037
1.3851322 1.2460495 76.60321 11.607598
1.7891606 1.274509 76.590118 11.170918
2.2094805 1.3036132 76.581017 13.081648
2.6521835 1.2968954 76.605644 14.013998
2.8671558 1.2895664 76.598366 16.778015
3.3948438 1.3869593 76.537704 20.023251
3.6957901 1.3948174 76.612434 20.024
5.1106071 1.2903501 76.651024 4.6571426
5.3996396 1.3013431 76.627258 3.2944527
5.8121195 1.3259108 76.657166 5.5071425
6.1547666 1.3373592 76.652328 5.9690475
6.5297856 1.36259 76.687798 11.692119
6.9489279 1.377563 76.604973 16.007626
7.3623848 1.4228979 76.603813 19.3445
7.8763833 1.4475365 76.612442 21.009499
8.2772083 1.4606686 76.59861 18.827785
8.6007051 1.5060134 76.521904 17.374918
9.0408926 1.5284745 76.642715 14.362964
9.3359756 1.5406762 76.629494 14.09
9.7101212 1.5665531 76.665543 10.125
10.112608 1.590099 76.618271 9.1000004
14.687817 1.4221447 76.596153 19.096968
15.077443 1.2101465 76.562645 25.801161
19.457251 1.3599192 76.591331 28.141453
21.460396 1.4104166 76.476181 26.541666
22.22047 1.3589141 76.644394 28.1133
9.9166813 1.6031413 76.610489 12.333334
10.124636 1.6109332 76.727249 7.5
10.457508 1.6207188 76.60627 8.75
11.070121 1.6692542 76.632011 9.8888893
14.658877 1.8531322 76.597 11.907764
19.430502 1.7527094 76.589859 21.492823
22.158367 1.7047896 76.72522 22.5625
14.731274 2.077621 76.601181 9.9096832
15.015839 2.1022975 76.604477 9.7205954
15.406176 2.1238186 76.609123 9.188612
15.793572 2.1482708 76.605652 9.2971268
16.217421 2.1747539 76.610657 10.171359
16.611647 2.1951587 76.584549 9.1659126
17.005333 2.2192657 76.620186 10.4007
17.395758 2.242435 76.638123 11.055637
17.794937 2.2672446 76.603424 12.760498
18.202997 2.2853458 76.594261 13.811795
18.606092 2.3087168 76.624321 12.230427
18.9911 2.3330874 76.608932 12.697682
19.382706 2.2057865 76.574371 16.817167
-7.4818125 -3.2040761 77.172905 39
-7.6708889 -2.8491328 77.109253 37.5
-7.5568819 -2.865411 77.092087 37.5
-1.7830305 -2.8060355 77.10128 59.046501
-7.6406193 -2.5491943 77.132881 37.28125
-7.5828247 -2.569232 77.129578 38.5
-7.662838 -2.1619296 77.12365 37.48642
-7.4455838 -2.2904131 76.918007 50.19025
-2.4348402 -2.2458744 77.108002 39
-2.0439739 -2.0883636 77.066162 38.262501
-1.9286146 -2.1477485 77.028862 42.876068
2.8259022 -2.1846623 77.056847 57.510002
-7.6890793 -1.8008002 77.104706 38.824059
-7.4577112 -1.8628256 76.984634 51.36895
-6.9806213 -1.9200379 77.069122 51.917248
-6.6115808 -1.8885946 77.006462 57.581581
-6.2004972 -1.8772272 77.025688 53.090267
-5.8577147 -1.8671029 76.9384 52.305367
-5.5185199 -1.822673 76.946129 50.112537
-2.5530446 -1.8345474 77.178146 38
-2.0967369 -1.8038576 77.024666 42.041855
-1.8868611 -1.6968268 76.991714 44.417374
-1.4788066 -1.6069295 77.063881 52.836086
2.7621434 -1.8513685 77.11042 61.003498
2.8975868 -1.7403357 76.975098 55.454948
-7.7098994 -1.4084783 77.112068 36.699657
-7.5113072 -1.4490596 76.963852 49.607845
-5.464777 -1.3578843 76.917366 51.445286
-2.6225784 -1.4672815 77.159828 34.833332
-2.0625234 -1.402174 77.057983 44.128689
-1.950092 -1.4123589 76.999565 46.466351
-1.3840371 -1.5847989 77.031578 51.084393
-0.99791324 -1.5646893 76.996178 51.520771
-0.59063566 -1.5443823 77.027512 52.440193
-0.20799737 -1.5212854 76.983231 51.620239
0.19124641 -1.4963132 77.002449 53.707333
0.58602905 -1.4741641 76.975479 52.175705
1.0110893 -1.4448146 77.00663 51.701488
1.4116099 -1.4203198 77.007164 51.307896
1.7910694 -1.4027854 77.015053 53.99931
2.1667807 -1.3782089 77.017952 53.028732
2.6174376 -1.363088 76.974442 52.03828
2.9029748 -1.2944361 76.982025 51.405212
19.556938 -1.392399 76.88784 57.008499
-7.7210264 -0.99026471 77.102547 35.859894
-7.5179553 -1.0726123 76.958717 47.716919
-5.7518525 -0.81436694 76.888702 62.013
-5.4594569 -0.99561381 76.94429 49.201721
-2.5476882 -1.0410079 77.159256 33.166668
-2.0539563 -0.98267925 77.048157 41.506817
-1.9787879 -0.98421681 77.009109 44.91552
2.9079032 -1.0266623 76.973228 49.53727
5.714499 -1.0610812 76.833878 48.084999
6.6415987 -1.0243068 77.142029 58.264
19.573942 -1.0865165 76.993324 58.675995
19.612049 -0.97049248 77.161072 57.008999
-7.7348118 -0.61450166 77.09491 31.87755
-7.5341949 -0.68739688 76.933571 37.800407
-6.0930533 -0.65508968 77.006325 53.801273
-5.640224 -0.61363828 76.943459 49.013
-5.4855075 -0.58525163 76.969917 44.883289
-2.5795779 -0.60211766 77.168846 32.362801
-2.0549424 -0.57038045 77.020248 36.961403
-1.972641 -0.59524077 76.907082 39.7253
2.8827507 -0.61289555 76.97644 47.655636
5.1280527 -0.60742635 77.074684 54.788876
6.6399016 -0.54612184 77.04995 48.472404
15.084349 -0.4713611 76.949448 53.89748
15.355088 -0.52586961 77.026558 55.970383
15.809647 -0.53560734 77.00412 53.90366
16.203014 -0.50717425 76.980232 53.012325
16.58676 -0.48758629 77.037415 53.357029
16.989567 -0.4642351 77.036034 53.887848
17.380894 -0.43883991 77.023994 53.487961
17.771173 -0.42226332 76.981071 54.51722
18.107958 -0.4095175 76.947502 54.295902
18.466946 -0.40488791 76.936119 46.057251
19.485626 -0.44876948 76.948265 58.366581
19.658926 -0.61165875 77.034584 50.067593
-7.7237926 -0.20681235 77.07457 25.996738
-7.5457106 -0.23378293 76.92025 24.52931
-6.1696205 -0.37276885 76.962952 32.595657
-5.5026178 -0.16861695 76.963104 26.05862
-2.6270761 -0.22333056 77.154327 29.124887
-2.0804701 -0.17663461 77.040955 30.737144
-1.982924 -0.31362635 77.003922 39.117855
2.7813396 -0.14279793 77.037621 40.261784
2.8589149 -0.24562663 76.987152 42.08469
5.1025348 -0.20793714 77.002121 45.000484
6.5870676 -0.23617615 77.087303 44.203167
11.19294 -0.093299806 77.15062 51.014999
14.785771 -0.082430683 77.0065 51.681667
15.131304 -0.18419877 76.934799 53.394062
15.247353 -0.17889003 77.0168 51.92131
17.972912 -0.39306456 76.893021 47.542625
18.241505 -0.39135888 77.01503 51.800789
18.617035 -0.37381318 76.983025 53.795689
18.989046 -0.35290146 76.959633 51.939892
19.489311 -0.26549956 76.988388 52.624249
19.659616 -0.18074688 77.025139 51.80331
-7.6647339 0.1474527 77.029282 22.979795
-7.571404 0.20799923 76.95208 21.542698
-5.4410858 0.20416969 77.024582 15.138451
-4.9990864 0.21925467 77.107521 16.526991
-4.6044302 0.23261653 77.121521 17.778795
-4.2080264 0.24896148 77.148476 18.711
-3.7862749 0.24623503 77.159225 21.953995
-3.4295976 0.25838783 77.168221 21.013269
-3.0360782 0.27947831 77.164742 21.876146
-2.6614435 0.21494225 77.157852 24.198963
-2.0918097 0.2200391 77.024719 24.054739
-1.9833587 0.10821068 76.847084 19.539499
0.97620124 0.092291161 77.185143 32.006577
2.7616775 0.29055837 77.02626 28.571838
2.8496203 0.1432551 76.98098 32.686146
5.0964479 0.15653309 76.983032 35.204292
6.6073732 0.10878642 77.11042 36.507
15.13786 0.22732401 76.996201 48.729965
15.237409 0.10597086 77.000198 47.592175
19.558647 0.18685842 76.961029 49.083229
19.655838 0.1547057 77.041214 46.836773
-7.6416821 0.58906847 76.989548 20.674355
-7.4834375 0.63948417 76.990219 17.890642
-7.010365 0.75999558 76.980232 14.68989
-6.6110988 0.78175986 76.994774 14.843503
-6.1962361 0.79199541 77.003777 18.597048
-5.7657275 0.78548908 76.963158 13.068601
-5.4245739 0.57821375 77.04406 15.169318
-4.9557452 0.56369615 77.08889 20.127022
-4.5959649 0.5909785 77.104485 19.131763
-4.2334657 0.58360034 77.139099 18.763586
-3.8089166 0.58688337 77.16246 18.92061
-3.4096203 0.60660678 77.161102 19.818008
-3.0121486 0.59820938 77.161591 18.598576
-2.5911179 0.58426756 77.165031 14.761334
-2.1168039 0.61282611 77.023804 18.889263
2.7745852 0.61405951 77.011063 21.313644
2.8376586 0.56015974 76.965508 25.76684
5.0798793 0.56273919 77.006172 22.935806
11.228713 0.64451027 77.055138 34.014999
14.794465 0.71279979 76.947884 41.518002
15.138391 0.6530351 76.990433 42.75491
15.20175 0.47938848 77.037598 39.032001
17.842407 0.60214311 76.973808 54.113098
18.101463 0.55924898 76.961678 57.340595
19.547798 0.60217029 76.985878 42.066319
19.651524 0.5551821 76.990219 40.440773
-7.0328989 0.82483971 77.030952 10.5
-6.6592212 0.81456852 77.028343 10.839286
-6.1997871 0.81879997 77.027657 13.012904
-5.837152 0.83039922 77.053886 15.211729
-5.4496636 0.84417975 77.117386 16.276611
-4.985013 0.85687351 77.102158 17.270891
-4.5543876 0.85275728 77.145241 15.633334
-4.2086449 0.86405706 77.161377 18.046978
-3.7663803 0.89417255 77.152306 20.592918
-3.3910604 0.88270587 77.1744 19.428701
-3.0454364 0.92729563 77.189102 20.375
-2.6555958 0.84654903 77.185661 23
-2.1236494 0.94983423 77.021088 18.120264
-1.8074791 1.0627505 77.004219 14.571198
-1.4197057 1.0872483 77.002678 12.685116
-1.0081826 1.1073376 76.985085 11.476576
-0.60093433 1.1279155 77.001038 11.778508
-0.19935958 1.1493061 76.993233 12.771855
0.19945444 1.1711199 76.998055 13.755983
0.54847199 1.1870906 76.942406 11.908289
1.0611563 1.1998893 76.831467 19
2.7723079 0.9709363 76.991203 15.154978
2.8347528 0.94137532 76.986855 20.162676
4.9752445 1.0838459 77.058746 12.173403
11.255856 1.0105515 76.998497 26.014999
15.118561 1.0607346 76.999062 27.523851
15.205305 0.92619562 77.171715 33.5205
17.897882 0.82234842 76.902885 44.701416
18.181978 1.0192205 76.844635 37.680817
19.538651 1.0079957 77.001579 34.111088
19.637302 0.96336633 77.036964 35.74136
0.3635236 1.2147734 77.057655 16.7735
0.65116268 1.2104176 77.029854 13.745667
0.98523206 1.2254378 76.97744 12.768506
1.3948525 1.2517889 76.987297 10.88236
1.7767079 1.2780105 76.974487 12.152994
2.1836872 1.3018947 76.990158 12.199408
2.6470876 1.2871443 77.009361 15.479142
2.8627884 1.2802277 76.96199 16.080906
3.5747209 1.3961071 76.878387 21.0205
5.0693421 1.2657295 77.032677 5.8927512
5.4708734 1.3148024 76.968773 2.1201699
5.8644438 1.3273585 76.968979 2.4840477
6.2167163 1.3437362 77.003067 6.1740928
6.5985336 1.3730736 76.95063 14.503834
6.949007 1.3899455 76.909813 18.261688
7.3105268 1.430334 77.081352 20.0175
7.9196301 1.4460599 76.905746 21.5175
8.1711855 1.373958 76.886765 22.293501
9.0093498 1.5164366 76.931122 16.361166
9.3856745 1.5441858 77.00045 13.225681
9.8603039 1.5755703 77.016914 7.9785714
10.197449 1.5935509 76.951767 7.07619
11.136194 1.548625 77.11969 15.75
14.671634 1.4077555 76.965378 19.296068
15.029601 1.2119282 76.998497 24.537161
19.524202 1.3784257 77.015221 25.69153
19.633263 1.3296678 77.023056 31.173677
8.2502642 1.7345443 76.867355 17.5415
9.014411 1.7359176 77.191772 21.018999
9.7523966 1.7787305 77.136902 22.018999
10.280753 1.6090165 77.063644 6.8055558
10.581055 1.6539215 77.028458 8.3544922
10.998878 1.6620009 77.002243 9.5847626
11.85487 1.9148085 76.992775 24.018999
14.644446 1.8297764 76.997131 12.190827
19.510239 1.7577385 76.975777 20.597012
19.662537 1.7044201 77.124931 26.098917
14.679153 2.0762212 76.991425 12.302777
14.990535 2.1005671 77.015396 9.2959204
15.427978 2.1233685 77.005699 6.7941079
15.823727 2.1466403 76.959595 8.0254297
16.207773 2.170665 76.991287 8.0824013
16.591305 2.1935329 76.982544 9.1317749
17.036446 2.2225029 76.979317 10.308865
17.419142 2.2463052 76.991119 13.35727
17.805529 2.2671084 76.96698 12.179317
18.197596 2.2898612 77.003502 13.215016
18.607012 2.3110878 76.988289 13.478259
19.002989 2.3345191 76.998924 12.182757
19.451448 2.2254446 76.98996 15.643071
19.61249 2.0959389 77.102615 24.936869
29.307564 2.7442555 77.088623 21.067499
-7.5566592 -3.2828479 77.318665 39.525249
-7.6591725 -2.8531079 77.410141 37.860603
-7.5719728 -2.9088225 77.403175 39.00441
-7.650032 -2.5681639 77.409111 37.967934
-7.560359 -2.5336251 77.300621 48.271317
-7.6720524 -2.1927664 77.394302 38.631104
-7.554492 -2.1351902 77.377861 54.136623
-2.5542336 -2.1369114 77.407219 40.72905
2.778949 -2.1850843 77.416908 60.506001
19.55925 -2.1694558 77.507324 61.007999
-7.7047133 -1.824347 77.397385 40.383774
-7.3738828 -1.9697241 77.41391 53.795471
-6.9627113 -1.9133744 77.411461 51.81139
-6.5929399 -1.8916916 77.421005 50.887165
-6.2119808 -1.8706472 77.410965 50.88282
-5.7756481 -1.8463093 77.440338 51.29351
-5.3858209 -1.7904894 77.503494 49.702663
-4.973062 -1.7450485 77.499893 44.774109
-4.6133642 -1.7666755 77.500664 49.889206
-4.1531339 -1.6901766 77.530807 47.866383
-3.8422606 -1.7061459 77.533562 47.249672
-3.4364958 -1.6818683 77.524101 46.59026
-2.8997619 -1.6949693 77.529869 44.730404
-2.5723736 -1.7478917 77.406815 42.639633
-2.196301 -1.6824498 77.369324 46.697609
-1.811082 -1.6166904 77.406204 49.894081
-1.5141118 -1.6075957 77.469833 54.86507
2.7017894 -1.8321191 77.442856 61.384087
2.8626852 -1.7119305 77.359863 57.172874
19.613438 -1.6195862 77.544159 61.0075
-7.7388477 -1.4118413 77.4086 39.231991
-5.2868361 -1.3798114 77.455284 53.913494
-4.976757 -1.395949 77.485451 44.064945
-4.5659947 -1.3924911 77.473824 45.807327
-4.1835523 -1.3561934 77.530952 43.760414
-3.7784908 -1.4135522 77.542358 41.924057
-3.4226582 -1.387308 77.55043 43.572845
-3.0212567 -1.4274294 77.579567 45.820396
-2.6288135 -1.4108533 77.395477 43.688927
-2.2027702 -1.3914443 77.25956 46.955235
-1.9354756 -1.4358546 77.267067 48.630711
-1.3682317 -1.5845966 77.446167 51.0909
-0.99415684 -1.5621301 77.42025 50.506214
-0.60658044 -1.5435182 77.407654 52.70401
-0.21042055 -1.5176154 77.425819 51.202297
0.22539249 -1.4931151 77.413322 50.185837
0.63366485 -1.4682747 77.417549 50.987381
0.98844892 -1.4475601 77.412384 50.404068
1.3910561 -1.4225659 77.405342 51.200363
1.7968339 -1.3971401 77.39933 50.770031
2.2132401 -1.3681765 77.406555 51.38512
2.6358747 -1.3529478 77.423378 53.908932
2.9334223 -1.2768464 77.405075 49.157761
3.3449264 -1.2661135 77.539192 45.794273
3.7450981 -1.2586412 77.584122 48.27483
4.0847616 -1.2415128 77.309959 48
6.2599764 -1.3743329 77.521141 50.834709
19.649605 -1.4979172 77.443527 60.007751
-7.7408814 -0.99743497 77.388985 40.120899
-5.319808 -0.94691408 77.440689 52.888622
-5.0083098 -0.98431957 77.500648 44.690243
-4.6004114 -0.99530351 77.498413 42.109943
-4.2189722 -0.98611224 77.541222 43.206055
-3.8303435 -1.0061365 77.552971 42.523468
-3.4176733 -1.0525861 77.547417 40.293034
-3.0174994 -0.99505299 77.55648 35.920452
-2.6444798 -0.97690552 77.393791 38.640167
-2.1753583 -0.97655016 77.258911 45.320534
-1.9734594 -1.0124719 77.246529 52.401882
2.790164 -1.0106996 77.549591 50.713165
2.9748855 -0.99799711 77.448837 49.089645
3.4224277 -0.98866302 77.558304 46.01582
3.7663085 -0.98584199 77.564651 46.65007
4.2061176 -0.97873783 77.55101 44.107983
4.6075902 -1.0180789 77.550255 45.055553
4.9403992 -0.9659248 77.57959 49.459961
5.2590947 -0.95875829 77.379974 58.060913
5.8531361 -1.1619736 77.47068 59.019001
6.2454553 -1.010537 77.543465 50.310143
6.6565757 -0.95172137 77.415047 50.261497
6.9967322 -0.83211374 77.582016 39.0345
9.6754475 -0.89826322 77.572212 50.032001
10.046121 -0.88783932 77.302292 44.033001
11.234192 -0.89162099 77.291496 56.0355
19.72094 -1.0372741 77.395157 55.091927
-7.772707 -0.61744624 77.394447 32.922375
-5.7678981 -0.59597123 77.445755 51.768238
-5.3455005 -0.60018873 77.424789 45.277359
-4.9871311 -0.60699075 77.517906 42.833321
-4.5768242 -0.60648704 77.528725 44.110367
-4.1980562 -0.57991272 77.558647 44.751492
-3.8295028 -0.57152152 77.56736 43.869255
-3.4266424 -0.58907622 77.575066 41.547554
-2.9758878 -0.55788475 77.564819 44.267117
-2.6562326 -0.57686174 77.377617 36.976879
-2.1823027 -0.58047897 77.270012 43.089485
-1.9845141 -0.64898175 77.240166 48.848103
2.7827344 -0.61113179 77.462334 43.011364
2.945884 -0.59350371 77.459076 46.204399
3.3584092 -0.55846107 77.562737 44.069897
3.7809663 -0.59128457 77.555901 40.312622
4.2214198 -0.59981799 77.553162 41.170113
4.5798426 -0.47065449 77.555687 41.9212
5.1371861 -0.59891582 77.478477 48.596714
5.223772 -0.61510885 77.421471 57.188862
5.6325817 -0.62331355 77.442856 60.037998
6.2359686 -0.58816504 77.496002 50.065208
6.6311417 -0.54513162 77.435539 40.726509
7.0399661 -0.60131896 77.596375 40.5
15.139422 -0.49039727 77.359077 59.060307
15.361826 -0.56252909 77.360794 55.300671
15.775535 -0.534343 77.379738 51.440113
16.223265 -0.51118475 77.356049 53.586575
16.585346 -0.4910152 77.397141 54.612396
16.981796 -0.46546173 77.411903 54.249157
17.370138 -0.44396695 77.411842 54.362652
17.782803 -0.42166993 77.388649 53.376751
18.158308 -0.40992594 77.386581 56.778423
19.532293 -0.44424593 77.247696 59.711903
19.723326 -0.60422832 77.376686 50.35743
-7.792973 -0.20705974 77.403008 24.061174
-5.8548794 -0.33412975 77.429153 31.676666
-5.3563499 -0.19291164 77.413147 26.308758
-5.0042906 -0.16831933 77.512634 25.334711
-4.6076903 -0.18509354 77.516289 26.67164
-4.2062707 -0.15632811 77.548653 26.44618
-3.8237791 -0.16214639 77.570435 27.896986
-3.4157271 -0.20595148 77.546005 29.482479
-2.9859664 -0.15928622 77.567719 31.760159
-2.6828413 -0.17870536 77.379982 30.446981
-2.1736271 -0.19672588 77.274254 34.182995
-1.9914911 -0.18544497 77.290131 35.965584
0.77511096 -0.23428372 77.333466 53.002998
0.97623706 -0.25074047 77.264641 55.423977
1.3266531 -0.34323159 77.391525 59.819584
2.7701275 -0.13708407 77.437622 40.965027
2.9340358 -0.19434042 77.478745 40.839275
3.3692286 -0.16978149 77.56514 39.658669
3.7733815 -0.16750632 77.573517 35.78801
4.2426481 -0.14106642 77.513306 36.381046
4.6297512 -0.10431439 77.55397 35.541668
5.1261754 -0.20165031 77.487236 41.230358
5.3769464 -0.20190889 77.519211 51.826698
5.7725663 -0.16101228 77.544792 54.113537
6.142498 -0.19334331 77.525261 46.063602
6.606566 -0.17705053 77.417389 38.651192
7.0363011 -0.25116926 77.594727 38
15.081331 -0.14598016 77.405365 55.543839
15.214934 -0.15710728 77.237991 59.703335
17.89954 -0.38944975 77.272667 46.040253
18.257875 -0.38693041 77.37133 50.431965
18.571863 -0.37624133 77.416931 49.985962
18.974415 -0.35417962 77.380775 51.25219
19.443182 -0.32939973 77.389412 50.857937
19.714939 -0.20058292 77.410622 51.558987
-7.7052236 0.15927002 77.406769 21.960121
-7.5659771 0.29452074 77.385483 22.434259
-4.8158693 0.081037655 77.228394 18.038
-4.5950403 0.21669614 77.310234 8.6713638
-4.1658411 0.17731981 77.332458 15.907489
-3.7481835 0.21578659 77.27536 14.132427
-3.390419 0.23017006 77.28096 17.919231
-2.96294 0.24209546 77.283211 19.270958
-2.649302 0.18103185 77.315689 22.708788
-2.1970727 0.19774969 77.266228 22.01001
0.97990823 0.078584902 77.24511 33
2.7697279 0.26213232 77.421013 28.788725
2.9403284 0.19493154 77.47496 30.57786
3.3612936 0.21139139 77.564682 31.009811
3.7735674 0.223075 77.573196 29.969738
4.2778807 0.25615266 77.51059 31.320953
4.5785346 0.28558329 77.558266 32.515484
5.1360879 0.20170949 77.476723 32.637726
5.3460598 0.15553801 77.496506 37.494118
5.8362703 0.20668876 77.535408 38.355515
6.132802 0.17975658 77.521851 36.611214
6.6558723 0.15524551 77.47097 35.808701
6.9849505 0.1722351 77.592834 35
11.096397 0.22109593 77.29734 45.182774
15.093058 0.28835958 77.367935 49.39394
15.205233 0.10047555 77.215782 47.030499
19.595905 0.29115492 77.589493 36.056499
19.718088 0.16828613 77.403748 46.856838
-7.647357 0.57749838 77.390244 20.988327
-7.4770927 0.63043863 77.409836 18.635969
-7.0071659 0.75115526 77.39492 15.847342
-6.6436553 0.78010714 77.402855 13.856943
-6.2747903 0.79095775 77.418861 18.066721
-5.7002645 0.79751486 77.307777 26
-5.5674343 0.45821208 77.202774 0
-4.8354874 0.58714283 77.205223 20.5
-4.1128244 0.54786026 77.237137 6.3392859
-3.8119748 0.59649032 77.24762 8.3372097
-3.3646739 0.60442686 77.232162 12.640128
-2.9541671 0.59687257 77.245316 14.657333
-2.5702844 0.60450011 77.265541 16.490814
-2.2035818 0.59050542 77.284065 14.730651
2.7677715 0.60274261 77.407265 22.304197
2.9753823 0.581738 77.515366 22.056887
3.3741632 0.60482222 77.570175 22.535181
3.7594018 0.61729002 77.573532 24.817204
4.2125268 0.62951052 77.52314 26.316751
4.6152678 0.66226625 77.558853 28.193836
5.1202159 0.59207761 77.494789 25.349491
5.3653846 0.60346133 77.512665 22.729343
5.7957778 0.63323385 77.53347 22.695654
6.1301427 0.60086995 77.5243 28.226131
6.5776186 0.59692031 77.587791 31.02075
6.8365517 0.69179016 77.57515 27.042
9.9074879 0.63364565 77.59903 30.043501
11.104707 0.57117009 77.36866 36.347458
15.065577 0.65649909 77.387932 41.706036
18.244841 0.59233457 77.373344 56.277954
18.451252 0.62347066 77.398628 56.649483
19.579464 0.61797595 77.293533 42.43483
19.699919 0.57291061 77.40213 43.105846
-6.9799366 0.82410812 77.403778 11.5
-6.5831985 0.81541133 77.388634 11.663018
-6.1876202 0.81677896 77.392174 14.807683
-5.7798448 0.83415532 77.393616 15.713842
-5.4126687 0.85430783 77.418144 11.163095
-5.0443096 0.87775576 77.370361 13.19533
-4.6118817 0.90584612 77.381447 13.850692
-4.1930161 0.92560923 77.372017 13.672516
-3.7637193 0.9514764 77.381523 14.439118
-3.4193864 0.95788521 77.359467 14.481687
-2.9945784 0.96383154 77.368477 11.739462
-2.6052973 0.98645931 77.366669 14.081193
-2.2089243 0.98079038 77.362709 14.449954
-1.792854 1.0649191 77.394684 12.837992
-1.3991548 1.0882882 77.390457 12.990232
-1.0006999 1.1123689 77.40284 13.521214
-0.60973853 1.1327891 77.359421 13.045779
-0.20166928 1.1575427 77.393066 13.167821
0.19751203 1.1815085 77.385559 12.77553
0.50716591 1.1949015 77.388344 10.908669
2.7595098 0.98323023 77.398239 17.053579
2.9630823 0.96756631 77.51091 17.705736
3.3831215 1.0061028 77.572411 19.064785
3.7709427 0.97862327 77.579124 20.138918
4.1724057 0.98952115 77.528122 23.097269
4.6089458 1.0461789 77.560829 24.342085
5.083951 1.0569907 77.466705 17.263433
5.3098707 0.82794607 77.548195 13.469863
5.7655072 0.83272165 77.566811 12.448038
6.1101003 0.96394587 77.491722 22.38159
6.6919384 1.0240432 77.58606 26.038
9.9452877 1.0983851 77.536919 23.043501
15.031051 1.0757694 77.386055 27.211845
17.461861 1.0995131 77.482193 30.700249
18.270006 1.0139101 77.373878 37.471592
19.568314 1.0129189 77.309235 33.458488
19.673101 0.96001852 77.399651 36.554699
-0.038713217 1.2023684 77.495911 21.51675
0.18000746 1.2092226 77.330811 18.011938
0.63884795 1.2172577 77.40667 15.461998
0.97757465 1.2304702 77.370041 13.137827
1.3840519 1.2570549 77.414009 13.627363
1.7808398 1.2812116 77.385376 14.025974
2.1670842 1.3057795 77.400597 12.957954
2.6351378 1.2909651 77.389862 14.968599
2.9716566 1.2751441 77.501221 18.338703
3.3863807 1.3044137 77.535545 19.065201
3.752739 1.3410486 77.551079 18.489523
4.1803632 1.3734694 77.494621 18.585127
5.0656271 1.2717954 77.379494 16.366203
5.3711209 1.3404555 77.371002 9.3650742
5.7609992 1.3462666 77.419449 9.2440252
6.145916 1.3055614 77.475266 16.369326
6.6371579 1.453084 77.585541 22.289001
6.9970403 1.3414853 77.39946 23.0035
9.5398989 1.5431014 77.265694 14.347249
9.8333158 1.5576578 77.40036 9.0369453
10.176778 1.5865488 77.383965 3.5240743
10.787378 1.271704 77.597786 19.011499
11.091202 1.5070535 77.462959 16.492613
14.709698 1.4441031 77.380592 19.929897
14.886021 1.3988435 77.484673 19.033167
19.569305 1.3753122 77.327011 25.634991
19.661373 1.3706354 77.411224 27.413919
7.1502371 1.6250038 77.318481 17.518999
7.8362169 1.6638172 77.270798 19.018999
10.264169 1.6144131 77.459503 3.3444445
10.580027 1.6254715 77.428299 4.4332705
11.010453 1.6521416 77.410507 10.406657
14.676418 1.8328477 77.397942 15.404019
14.852273 1.8233209 77.51722 11.519703
19.560619 1.7849377 77.336899 18.888424
19.660219 1.7323792 77.417206 24.391966
14.678643 2.0615759 77.387787 13.441176
15.004877 2.0980031 77.389786 9.6672697
15.369719 2.120611 77.386261 7.7439127
15.799217 2.1458621 77.424454 7.1740656
16.195316 2.1682651 77.389473 8.2705717
16.596403 2.1955471 77.413147 11.028698
16.998447 2.2202339 77.380074 12.072665
17.391319 2.241411 77.390427 12.219029
17.777905 2.2644341 77.395844 13.51697
18.183739 2.2853143 77.405594 13.171776
18.589291 2.3111768 77.382019 14.435328
18.955343 2.3303506 77.418594 13.107996
19.473085 2.2703569 77.39003 12.778971
19.653883 2.1731222 77.440926 21.806875
19.567211 2.409595 77.442352 25
-7.4871731 -3.8489108 77.974991 41.0485
-7.513588 -3.2406471 77.789871 38.5
-7.619947 -2.9606488 77.900925 38.340691
-7.5337677 -2.9429286 77.822311 41.05909
-7.6503839 -2.5527761 77.801674 37.432434
-7.5646391 -2.6217659 77.861328 37.88485
6.0790653 -2.7472079 77.855431 58.601002
-7.6759543 -2.1888797 77.798286 38.867085
-7.5437031 -2.0973668 77.803284 52.764103
-2.5862305 -2.1577618 77.771996 37.5
6.0886717 -2.2110085 77.860054 54.101002
-7.7154293 -1.8036685 77.822716 40.79364
-7.4179463 -1.9659293 77.871544 51.369194
-6.9436951 -1.9203328 77.823959 51.507328
-6.617815 -1.8952929 77.817535 52.211605
-6.18575 -1.873399 77.812637 52.075016
-5.7681203 -1.8487662 77.804947 51.171333
-5.3967104 -1.8281348 77.845032 53.755718
-4.9613566 -1.7995279 77.818764 49.731556
-4.5984249 -1.7745129 77.777306 50.256428
-4.2096229 -1.7549268 77.750717 48.345406
-3.7807927 -1.7259696 77.782043 47.871155
-3.3917818 -1.705987 77.792595 51.47422
-2.9840481 -1.6758227 77.804108 52.339394
-2.6088862 -1.6782898 77.7855 47.109509
-2.1595104 -1.6355995 77.828972 52.027946
-1.8289202 -1.6164688 77.825096 52.367443
-1.4950682 -1.6082007 77.797653 55.685196
-1.1899397 -1.61072 77.8946 45.040501
2.7475863 -1.8616122 77.657043 61.601002
2.8920469 -1.7377088 77.651367 57.601501
4.9484367 -1.6016657 77.735214 55.001499
6.247581 -1.7671185 77.695465 53.96278
6.6802697 -1.8206619 77.920479 49.833832
19.708271 -1.6197789 77.77948 61.007
-7.7466803 -1.4032201 77.825394 39.786846
-7.59482 -1.4040215 77.998489 35.799999
-3.2836392 -1.3760591 77.609344 47.709499
-2.9784632 -1.3404608 77.611153 45.274551
-2.6650636 -1.3900627 77.697945 41.345028
-2.0083401 -1.5887295 77.988968 44.040001
-1.7590472 -1.5957718 77.784576 49.430099
-1.3754377 -1.58468 77.826965 51.693386
-1.0046644 -1.5669439 77.806908 51.649334
-0.60583919 -1.5411195 77.780556 51.831379
-0.21996248 -1.5197233 77.796379 52.613232
0.20863843 -1.4939067 77.830002 51.923351
0.62008685 -1.4678968 77.820908 51.803387
1.0140079 -1.4407383 77.805954 50.906376
1.4317826 -1.4161801 77.784248 51.613636
1.8287749 -1.3924875 77.79174 49.99371
2.2279804 -1.3662024 77.805008 51.036129
2.6133831 -1.3467691 77.784531 50.835186
2.9650111 -1.3168901 77.792274 50.823368
3.3971524 -1.2953441 77.793938 51.449776
3.8024104 -1.2694162 77.764122 49.597157
4.2061181 -1.2621455 77.786011 50.234451
4.5949454 -1.2349553 77.826233 51.814869
4.9399447 -1.2308398 77.849411 51.811817
5.358058 -1.2125484 77.742393 58.533794
5.6256771 -1.2118709 77.770309 62.282001
6.2459922 -1.3171337 77.699875 54.87265
6.6747208 -1.3704216 77.875435 51.014488
7.0826979 -1.3330258 77.925346 49.607346
9.3993788 -1.3207121 77.890503 57.003502
10.112307 -1.3690603 77.884048 61.040249
10.891267 -1.3936357 77.958466 58.836834
19.77693 -1.401213 77.810951 56.004295
-7.7594442 -0.98607558 77.815994 38.441483
-7.5986962 -0.91942853 77.640587 62.5
-3.8050711 -0.84519571 77.680916 57.311821
-3.3832984 -0.91779929 77.615143 48.061749
-3.0058289 -0.95503932 77.630699 45.335957
-2.7040031 -0.993186 77.712433 36.75
2.917696 -1.027593 77.651367 47.571167
3.5279624 -0.8731696 77.607941 50.758907
3.8357124 -0.95991933 77.624283 49.987743
4.2230396 -1.0060364 77.631157 48.976482
4.6000595 -1.0103263 77.653725 49.888935
5.0112147 -1.0041124 77.686913 52.125324
5.3572555 -1.15008 77.830269 53.367989
5.7900629 -1.1714952 77.857887 53.561726
6.2574592 -0.99641055 77.710571 53.289257
6.6580257 -0.9813292 77.827248 51.398281
7.0449605 -0.95737827 77.873878 47.671551
7.3765459 -0.98525667 77.81414 49.532055
7.7784691 -0.93902397 77.835464 49.710346
8.174552 -0.944938 77.878723 50.788788
8.5876341 -0.91068047 77.885506 52.187057
8.9679155 -0.90529674 77.896385 51.621555
9.382618 -0.8808496 77.906937 50.693493
9.8224449 -0.87246406 77.917625 52.651218
10.167737 -0.88600481 77.819656 51.958778
10.613615 -0.86380035 77.881989 54.985306
10.945242 -0.89177084 77.883354 54.504452
11.532473 -0.81596935 77.973785 47.016251
13.18141 -1.0025331 77.958145 59.040001
14.088205 -0.80278695 77.721809 45
19.830988 -0.99839067 77.791847 52.922718
20.043852 -1.1172931 77.809845 40.875
-7.787734 -0.61198944 77.806366 32.406364
-5.9611759 -0.67763776 77.615997 59.260712
-5.2606096 -0.62407362 77.944168 58.130932
-4.9267135 -0.46192524 77.619049 46.418606
-4.6395226 -0.55334461 77.639313 48.966732
-4.1919894 -0.57039523 77.643257 49.357651
-3.7858675 -0.59529233 77.625748 50.952801
-3.3929291 -0.60007137 77.626984 48.531723
-2.9978688 -0.58182949 77.647163 45.848961
-2.744139 -0.5460248 77.698036 38.008747
2.8698668 -0.49502355 77.64608 50.347099
3.4921935 -0.58349901 77.618675 54.55513
3.8270264 -0.56380612 77.630241 49.947838
4.2004929 -0.58817524 77.636909 49.091606
4.6108069 -0.60319561 77.658943 49.489285
5.0159421 -0.59103799 77.668961 49.822872
6.2745667 -0.54882985 77.682793 48.55798
6.6419816 -0.59396189 77.806343 45.724987
6.9820476 -0.61166281 77.824081 45.348331
7.3637066 -0.60929239 77.782532 45.772091
7.8085895 -0.6201635 77.821877 48.579212
8.215683 -0.60313594 77.853996 51.006516
8.592804 -0.59951067 77.863441 47.945835
9.0058918 -0.59654498 77.883774 51.564571
9.414566 -0.59665728 77.910477 52.315426
9.8314238 -0.56840831 77.904381 50.495171
10.065642 -0.56056476 77.758141 48.160809
10.56216 -0.58003139 77.79335 54.099876
11.005042 -0.57748133 77.843941 51.64558
11.398728 -0.60975069 77.937729 46.780594
11.766797 -0.64849997 77.926575 51.49437
12.14614 -0.6387673 77.932884 48.488064
12.596295 -0.58884203 77.950211 50.287376
13.103659 -0.54907161 77.964409 56.039181
13.424068 -0.56700772 77.884003 56.392685
13.819628 -0.51329648 77.96891 58.72728
14.118142 -0.61224872 77.904808 47.714287
15.049921 -0.51717168 77.756111 59.495144
15.373208 -0.56100416 77.78109 52.033596
15.815188 -0.53446287 77.823166 51.756828
16.206394 -0.51413935 77.827019 53.992352
16.585009 -0.49005237 77.814384 52.7523
17.003933 -0.46607774 77.805153 53.417282
17.365604 -0.44491261 77.812531 52.347866
17.761776 -0.42166853 77.770386 51.83622
18.145039 -0.40967271 77.818481 53.19854
18.406532 -0.40375715 77.848694 62
19.582289 -0.40551138 77.955826 61.156311
19.846548 -0.63145798 77.809845 49.68026
20.043268 -0.66445655 77.893242 40.083332
-7.80861 -0.21014474 77.812653 24.537613
-7.576993 -0.30198884 77.957802 31.25
-4.8735595 -0.16676544 77.630424 23.640093
-4.5561066 -0.18019904 77.626747 25.619703
-4.1300373 -0.16735266 77.646805 28.204716
-3.7357857 -0.14784372 77.627335 29.047274
-3.3908687 -0.19378009 77.629631 31.718353
-2.991231 -0.18419063 77.660416 32.629993
-2.7420328 -0.14962468 77.675331 30.936508
-2.1005917 -0.081940114 77.6259 31.5
1.1025095 -0.21238838 77.725792 53.365337
1.3256055 -0.20473783 77.622673 52.675571
2.7676742 -0.12667689 77.640045 45.043499
3.0104194 -0.21773969 77.645447 51.604889
3.4759438 -0.1698775 77.633179 45.488049
3.829248 -0.17506287 77.629257 43.77948
4.2126684 -0.19131418 77.639542 45.335064
4.6162515 -0.21047512 77.661499 45.186291
4.9927535 -0.20905173 77.674744 44.615635
5.2198629 -0.24719681 77.648834 57.632248
5.9279518 -0.16948774 77.660461 55.181923
6.2279177 -0.1626644 77.685318 47.325199
6.6160297 -0.16887604 77.821938 44.903801
6.9797025 -0.21812029 77.811699 43.209198
7.4223533 -0.21121353 77.807121 46.231247
7.812808 -0.20286527 77.84256 50.443813
8.2075548 -0.18136121 77.859283 46.79792
8.6205702 -0.18922384 77.879013 47.948883
9.0113106 -0.19829306 77.890335 47.886822
9.4157267 -0.1825413 77.924706 49.16433
9.8468857 -0.18689016 77.902122 48.463078
10.117061 -0.17615144 77.765923 48.444302
10.575785 -0.17042659 77.814423 52.499386
10.984586 -0.21053419 77.860504 49.176941
11.413229 -0.1594041 77.896431 42.106899
11.925844 -0.17576069 77.95446 40.781876
12.2027 -0.17413867 77.926468 47.608833
12.575084 -0.3236402 77.95681 45.317928
13.105447 -0.19141459 77.96109 53.868881
13.417134 -0.15941755 77.929199 56.561359
13.77965 -0.14393607 77.965019 54.535896
14.119632 -0.19795851 77.934845 42.055557
14.957391 -0.161336 77.805771 55.447819
18.159897 -0.39270616 77.757408 48.983746
18.59886 -0.37638417 77.800133 53.11372
19.040943 -0.34570575 77.806091 51.304596
19.433487 -0.33265835 77.781456 50.13612
19.79542 -0.21746552 77.809853 49.070488
20.040354 -0.23208065 77.927048 38.200001
-7.7149806 0.16952386 77.802147 21.973824
-7.5519724 0.28513113 77.782539 21.611109
-3.3475161 0.03993988 77.633728 23.592703
-2.9792447 0.054994248 77.640427 22.771633
-2.7562912 0.075332172 77.666801 24.667347
-2.1405315 0.36327624 77.637177 29.5
1.1578896 0.11450295 77.662697 31.036488
2.7801874 0.39223087 77.662369 22.043478
2.9868448 0.17566422 77.65416 33.665939
3.4775746 0.20621864 77.62574 32.587128
3.801672 0.20853351 77.629463 33.287979
4.2163377 0.1859615 77.642548 34.011364
4.6199903 0.17750646 77.656731 34.546165
5.0155759 0.1701148 77.664566 34.445522
5.3470898 0.15374552 77.637985 39.82618
5.8856711 0.15871681 77.613968 40.019058
6.219202 0.22565597 77.696663 36.855785
6.6278996 0.21507445 77.820343 35.679237
6.9740052 0.18121086 77.819183 35.419693
7.4217649 0.21057135 77.802155 35.45031
7.7884836 0.21091889 77.83226 37.40416
8.196991 0.21096863 77.858566 38.281139
8.6234531 0.21625811 77.873734 38.430809
9.0195351 0.20838517 77.892204 39.288509
9.408618 0.21069954 77.915115 39.53186
9.8476076 0.20646435 77.893753 40.108376
10.150464 0.19130516 77.789253 43.648228
10.598824 0.13452759 77.81768 48.294327
10.957741 0.19431572 77.874199 43.663242
11.394695 0.23200221 77.898575 37.381966
11.798543 0.14552972 77.954559 39.443333
12.37315 0.020099729 77.741989 39.5
12.5099 0.059149623 77.953003 39.158031
13.127564 0.19751932 77.943054 45.833248
13.393085 0.21490219 77.944351 48.577965
13.808928 0.26811519 77.965401 47.709946
14.067179 0.20215239 77.916458 41.438286
14.945277 0.2830261 77.78598 47.859844
19.808704 0.16460709 77.8022 45.024746
20.016302 0.15710254 77.930717 36.799999
-7.6677146 0.57509238 77.805382 20.92679
-7.4552679 0.67927569 77.800209 16.329645
-7.0256476 0.76065248 77.799004 15.127172
-6.6373534 0.78367215 77.78582 15.240579
-6.3124299 0.79167992 77.811424 17.354818
-5.9191232 0.79008514 77.836372 21.000999
2.7720559 0.60186273 77.644234 13.437019
3.0030847 0.55730045 77.656967 21.055223
3.4430585 0.59096706 77.623268 19.975496
3.7860403 0.60210073 77.634071 20.740244
4.214375 0.58863682 77.647285 23.912308
4.5910578 0.61234689 77.660698 23.244505
4.9858389 0.57666719 77.672127 25.75108
5.8881679 0.66097587 77.612419 18.746569
6.2320571 0.60289568 77.724312 26.265951
6.6003966 0.60223329 77.768715 26.872654
7.003849 0.61227375 77.790634 27.116995
7.4066825 0.60399389 77.811821 27.657482
7.7841811 0.61715245 77.832741 27.444498
8.1935139 0.61949104 77.862015 28.633492
8.5993481 0.63176626 77.877525 28.519875
8.9846001 0.61467803 77.894966 29.634262
9.3859987 0.61931115 77.913139 30.724405
9.8283262 0.6272828 77.885345 30.552492
10.145482 0.55816203 77.791473 33.970299
10.600612 0.54704529 77.816933 34.845184
10.944482 0.59826255 77.852005 34.700981
11.441566 0.61810839 77.88813 33.862999
11.858751 0.52523011 77.956543 33.388981
12.381424 0.46736956 77.958046 34.033001
12.534221 0.50415975 77.938324 34.51825
13.110587 0.56759477 77.964401 37.39119
13.415432 0.61830825 77.935806 37.248257
13.789776 0.65151334 77.965904 36.804565
14.077015 0.6297248 77.868988 34.968166
14.927877 0.66476017 77.771461 41.004303
17.300003 0.5485509 77.781052 54.142437
18.165728 0.5758391 77.97953 59.419998
18.522284 0.62830669 77.865913 59.840908
19.799992 0.56906533 77.802063 41.172993
20.0182 0.49485129 77.98214 35.5
-6.8295155 0.83139491 77.817291 14
-6.5299644 0.81724423 77.814438 15.04875
-6.1691904 0.82089555 77.795815 15.217904
-5.7736311 0.83600467 77.80983 14.396537
-5.3961678 0.84988761 77.804871 13.818235
-5.0063686 0.86943924 77.84774 8.3688097
-4.6259933 0.89538461 77.790337 14.937845
-4.189733 0.92555916 77.788651 13.700836
-3.7898238 0.95485723 77.830635 16.415157
-3.3979332 0.97327721 77.814682 10.678328
-2.9830811 0.99811119 77.810425 10.425526
-2.5939434 1.0185322 77.843925 9.2312841
-2.2164025 1.0358593 77.798409 13.615618
-1.8276569 1.066115 77.802841 13.178318
-1.415575 1.088492 77.795143 13.325958
-1.0010834 1.1152966 77.798332 12.982656
-0.59347343 1.1362499 77.799812 13.39539
-0.21368042 1.1616114 77.807289 14.147317
0.15298684 1.1813942 77.796989 13.011041
0.45883626 1.1936722 77.760857 11.481495
2.9663637 1.0121839 77.70314 23.0798
3.4264534 0.94573933 77.628731 12.64733
3.7956576 1.0136735 77.618454 13.684062
4.2116151 0.99707246 77.648369 16.42721
4.5800633 0.98465645 77.658218 16.467869
4.9684205 0.99193114 77.659241 17.108709
5.7168021 0.80809581 77.619789 11
6.2147384 0.97493798 77.768257 19.973412
6.6177287 0.98504597 77.767143 18.124462
7.0057592 0.98198712 77.788376 18.326128
7.3729057 0.98044235 77.803558 19.745308
7.7938895 0.99494922 77.839203 18.722984
8.1860008 1.0087006 77.86338 19.595831
8.5997696 1.0127268 77.871025 21.09936
8.9905376 0.98546267 77.895065 21.886709
9.4134417 0.99072659 77.929909 22.574621
9.8279848 1.0226786 77.872467 22.585875
10.211362 0.96614665 77.807693 20.975393
10.636067 0.98735785 77.842674 20.918488
10.93682 0.98881489 77.860588 27.409079
11.427807 1.014716 77.943047 27.851055
11.773034 1.0024089 77.964516 28.931417
12.265953 0.90449023 77.957718 30.0165
12.504369 0.98154211 77.942909 30.345499
13.086329 0.98605162 77.954994 26.524433
13.408514 1.0417789 77.943237 25.94849
13.805652 1.0653343 77.957726 28.017763
14.051575 0.98439384 77.928589 32.493053
14.90006 1.1016338 77.797318 26.022961
17.404415 0.93184292 77.836632 37.465099
18.303497 1.0368959 77.965332 36.753342
19.566208 0.96417975 77.60997 31.553501
19.769016 0.96804351 77.802788 34.953609
21.178379 0.89078844 77.682175 32.25
21.404274 0.95124435 77.822784 31.833334
21.784233 1.0851147 77.918564 31.25
22.778828 0.95273793 77.986542 32
0.3372696 1.2074436 77.807961 16.388496
0.63219464 1.2189546 77.800194 14.069365
0.98576361 1.2323158 77.78241 13.544024
1.3838639 1.2628359 77.795639 14.773252
1.8082204 1.2871981 77.808411 14.536741
2.1969521 1.3095798 77.772301 14.377176
2.5956593 1.3309754 77.790466 13.990656
2.9792161 1.3508127 77.806053 14.488492
3.4179103 1.3688186 77.774269 14.478895
3.8252778 1.3954204 77.771255 14.084761
4.208456 1.3933911 77.755234 14.852916
4.5957708 1.4110333 77.755737 13.683784
4.9837308 1.412132 77.752342 15.788604
5.3986983 1.4274338 77.752792 14.722067
5.7872925 1.4552158 77.759933 13.998948
6.2112145 1.4354507 77.77951 15.867886
6.597683 1.4164968 77.805527 16.364504
6.9786735 1.4128324 77.802139 15.971785
7.4058828 1.3940479 77.808998 16.569115
7.7783012 1.371178 77.829132 15.272539
8.1804256 1.4204123 77.853592 16.075632
8.6212177 1.3971725 77.859604 16.976135
8.9987297 1.3799374 77.892136 16.24419
9.3909254 1.3978051 77.9076 17.565073
9.7918949 1.3982872 77.880852 16.796568
10.195314 1.5937688 77.841705 9.9409113
10.695355 1.4266104 77.822586 15.371375
10.925018 1.4378964 77.87146 19.567335
11.409082 1.3528504 77.942474 24.047012
11.75737 1.3721203 77.956535 24.4177
12.259286 1.2919137 77.951653 25.767376
12.407862 1.2814354 77.962021 22.039499
13.090236 1.307358 77.965973 18.771072
13.355261 1.3113598 77.946724 19.380762
13.791208 1.311865 77.956642 22.852226
14.042923 1.2842162 77.887123 30.57193
14.794486 1.4038155 77.948708 18.032499
14.8634 1.451315 77.81234 17.257057
19.589357 1.5779157 77.712868 24
19.758755 1.3639607 77.806931 28.349632
21.151316 1.3850076 77.675079 28
21.364075 1.3943611 77.86895 27.563387
21.749245 1.3686117 77.882812 28.666666
22.747967 1.5340843 77.98333 27
6.6208887 1.6046047 77.911285 0
7.0423994 1.6098921 77.905769 13.872188
7.3858247 1.6291664 77.922607 14.043921
7.7945414 1.6404383 77.906296 15.893833
8.2444134 1.660681 77.894653 16.013388
8.5982065 1.6655511 77.889236 16.299728
9.0121031 1.67689 77.91687 14.38823
9.3985949 1.6943718 77.924751 15.053802
9.8226748 1.7005812 77.929504 16.529263
10.177413 1.6645782 77.889099 13.99562
10.586735 1.658126 77.883125 12.95674
10.919529 1.6925148 77.885223 18.505682
11.428725 1.7461149 77.891609 19.692667
11.756132 1.7537739 77.929993 21.6196
12.186897 1.7422574 77.953812 17.468334
12.953138 1.7622924 77.984177 20.768
13.691895 1.9087113 77.997482 26.001499
14.760633 1.8619993 77.754471 19.090626
14.862681 1.8717923 77.801987 10.862086
19.575638 1.8407621 77.681145 18.25
19.734926 1.7583349 77.796852 23.141401
15.026702 2.0996802 77.817787 9.8388977
15.418959 2.1241066 77.791328 7.9342942
15.811954 2.1466055 77.820747 8.917697
16.189913 2.1699727 77.790833 10.451024
16.573509 2.1964631 77.794136 13.072479
16.994587 2.2233217 77.789719 13.913336
17.370567 2.2429073 77.806534 13.856673
17.799696 2.2711475 77.767517 15.427436
18.188444 2.2880328 77.792519 15.200954
18.573036 2.3101919 77.786232 14.974226
18.980167 2.3375189 77.796982 15.445592
19.425589 2.3491926 77.786186 13.231607
19.720325 2.1902285 77.814545 20.761015
19.661236 2.4138181 77.736389 25
-7.6312923 -3.2991474 78.20224 39
-7.4346447 -3.3414321 78.295944 44.267998
-7.4960437 -2.9604733 78.244011 39.453354
-7.6366367 -2.5592375 78.127411 36.75185
-7.5078025 -2.6040974 78.192459 40.893265
-7.6616592 -2.191221 78.150032 36.870834
-7.521174 -2.1906273 78.225014 41.698353
19.860371 -2.0341821 78.06517 57.003502
-7.673955 -1.7829763 78.140846 38.368
-7.5125813 -1.8355889 78.2173 43.256374
-6.9457707 -1.9266938 78.218842 51.81179
-6.619566 -1.8984966 78.241264 51.289112
-6.2481856 -1.8740807 78.18116 49.988716
-5.8003983 -1.8522263 78.195305 50.172314
-5.4109488 -1.8329194 78.188225 51.470131
-4.9733715 -1.803779 78.216393 51.757061
-4.5821977 -1.777454 78.200996 49.093277
-4.1955504 -1.7544762 78.164429 49.578312
-3.7655516 -1.7316437 78.195282 51.298115
-3.3911152 -1.7097392 78.177338 52.014965
-2.9615214 -1.6815394 78.232079 54.976673
-2.5625954 -1.6580907 78.18177 52.127785
-2.1951818 -1.6350666 78.209877 52.080135
-1.822298 -1.6161008 78.17276 51.046227
-1.4349401 -1.6036983 78.252937 53.464989
-1.1744404 -1.6030811 78.386658 63.009502
6.5793371 -1.6821909 78.185181 52.766781
7.1703424 -1.7259128 78.082657 61.546249
13.948991 -1.6675109 78.062515 63.005501
14.099474 -1.6091295 78.063019 49.001999
19.829334 -1.8647383 78.226944 62.006001
20.050097 -1.755793 78.021652 43.004501
-7.6711092 -1.3647584 78.146042 36.024418
-7.5604019 -1.4394041 78.23745 43.320641
-2.7048092 -1.298321 78.009491 36.5
-1.7058433 -1.5913854 78.178291 48.933998
-1.3824499 -1.5879285 78.205193 52.898079
-1.0287408 -1.5687867 78.202675 50.819244
-0.60200399 -1.5418785 78.20829 51.788403
-0.21651603 -1.5207784 78.177963 50.113003
0.19557472 -1.4964093 78.205498 51.139484
0.61662805 -1.4715173 78.191978 50.104153
0.98680419 -1.4477857 78.211433 51.972374
1.4132023 -1.4218894 78.185974 50.555401
1.773863 -1.3974038 78.190231 49.070953
2.1984303 -1.3700132 78.178619 49.881023
2.6251166 -1.3506767 78.207321 51.018673
2.9772644 -1.3200943 78.200081 50.851101
3.3950725 -1.2967788 78.220047 50.2617
3.8375983 -1.2742636 78.221405 48.675224
4.2156453 -1.254822 78.216347 49.899403
4.6007071 -1.2320565 78.226028 50.585785
4.998044 -1.2139422 78.197617 51.417171
5.3168521 -1.210597 78.192795 53.204948
6.3947115 -1.2602726 78.049103 49.667835
6.6534271 -1.364954 78.174347 51.636314
7.0263495 -1.3434211 78.175522 49.578636
10.911333 -1.2399285 78.003838 63.004002
12.976189 -1.2351731 78.104858 61.006001
14.028153 -1.4002341 78.104691 57.837917
19.866049 -1.3327656 78.233849 54.575039
22.26347 -1.2396088 78.253754 41
-7.6817932 -0.98953706 78.159706 37.678768
-7.566359 -1.053212 78.232185 40.85347
5.0725799 -1.1883509 78.239624 47.214401
5.4072766 -1.1792015 78.176079 50.666962
5.7706194 -1.158563 78.211983 51.601707
6.1900563 -1.1371785 78.285995 48.544373
6.6339626 -1.0270481 78.210159 50.346916
6.9887438 -1.0113962 78.21949 47.207508
7.4082561 -1.0870627 78.236259 51.85936
7.8088427 -1.0401241 78.275719 52.220779
8.2245789 -1.0164918 78.236519 52.582546
8.6233568 -0.98867959 78.20948 50.453934
9.0138311 -0.96479332 78.195206 51.439106
9.3687172 -0.94328678 78.22065 50.69725
9.7946739 -0.91344643 78.208961 52.610947
10.197613 -0.89115453 78.188744 52.659222
10.581742 -0.8712762 78.219345 52.212105
11.016226 -0.86116874 78.159607 53.085217
11.407858 -0.84607357 78.17318 54.25634
11.738256 -0.8128258 78.264786 55.498001
12.241898 -0.94383258 78.234955 59.339096
14.117454 -1.0662037 78.127357 50.502625
14.404619 -1.0035244 78.257294 57.005001
19.908216 -1.0119357 78.18795 54.625011
20.029066 -0.93554515 78.069557 42.4002
22.287811 -0.89533132 78.351692 40
-7.688127 -0.59912324 78.165649 32.117115
-7.5731635 -0.68794709 78.225128 35.436607
-5.3481464 -0.588153 78.17363 54.648407
-4.7910633 -0.60373396 78.134445 60.762589
-4.1975746 -0.55153883 78.190834 58.104912
-3.6323273 -0.5210048 78.253937 57.400753
-3.5326881 -0.49630737 78.232742 54.5266
-3.0843203 -0.51847953 78.093117 58.814556
-2.7647133 -0.59982246 78.030563 33.5
-2.1038642 -0.53256291 78.086464 61.5
-1.5207554 -0.45888382 78.133575 62.504997
-0.65781808 -0.42396134 78.14563 63.005249
6.6732087 -0.57152224 78.226089 47.48785
6.9121685 -0.59556329 78.225906 44.994686
9.8582706 -0.55456501 78.001038 55.5
11.093859 -0.57942474 78.025078 54.688923
11.399487 -0.60422581 78.050377 54.631901
11.829601 -0.70164132 78.135078 52.932568
12.206254 -0.67311269 78.140015 54.669453
12.597743 -0.6594727 78.176376 52.849136
12.960142 -0.56590396 78.143074 52.645123
13.356887 -0.69953203 78.215202 53.389603
13.825301 -0.66047567 78.192711 53.450325
