# .PCD v0.7 - Point Cloud Data file format
VERSION 0.7
FIELDS x y z
SIZE 4 4 4
TYPE F F F
COUNT 1 1 1
WIDTH 1519
HEIGHT 1
VIEWPOINT 0 0 0 1 0 0 0
POINTS 1519
DATA ascii
1.6059651 -1.3974085 25.230812
7.6989093 -1.2532194 25.264641
7.8161378 -1.3174744 25.317673
-5.1809845 -1.1795757 25.328293
-4.7183433 -1.1036804 25.265341
7.5321026 -1.0050498 25.221596
7.7089858 -1.076614 25.290354
7.9066181 -1.084908 25.320801
-5.2017503 -0.95231521 25.329132
-5.1777349 -0.95464009 25.350527
-4.7483582 -0.8844254 25.261423
7.7018466 -0.93678838 25.307413
-5.1916909 -0.76542139 25.318752
-4.8137031 -0.64502019 25.345144
-4.7392254 -0.69637513 25.277428
7.7824669 -0.70669204 25.265673
-5.2103176 -0.48132911 25.307474
-4.8182907 -0.49196944 25.277014
-4.7560611 -0.49740085 25.271667
7.4959688 -0.44969645 25.397127
7.7800813 -0.53600371 25.346869
-5.2295322 -0.35619289 25.320713
-4.82687 -0.30436078 25.263416
-4.7704058 -0.29985353 25.275074
7.4751778 -0.21554415 25.320599
7.7605419 -0.35432374 25.333984
7.8342934 -0.36745915 25.341732
-5.2524514 -0.12846144 25.306452
-5.0573921 -0.025343552 25.208609
-4.8347173 -0.087760352 25.263142
-4.7633162 -0.11844556 25.279696
7.4589767 -0.097158454 25.32044
7.8170996 -0.14509591 25.385626
-5.2349195 0.068026349 25.319988
-5.0518103 0.075684071 25.223858
-4.8424006 0.056797653 25.257957
-4.7663851 0.10576528 25.290903
7.0204811 0.12668872 25.38583
7.4436903 0.089687854 25.332478
7.751389 0.089382797 25.348309
-4.8353801 0.26830757 25.25539
-4.7126026 0.20132938 25.294466
7.4443393 0.27300319 25.302895
-4.8728352 0.48224279 25.326721
7.3620901 0.5180952 25.222775
7.4352942 0.49948376 25.339849
7.6851664 0.48128998 25.26218
-4.8922305 0.72814369 25.247667
-4.7626204 0.7853623 25.229395
7.3915138 0.73107183 25.215424
7.4198933 0.72104812 25.326492
7.655726 0.67938197 25.277456
7.3577309 0.89494252 25.287264
7.4123001 0.8219986 25.32041
7.6540618 0.89085847 25.271801
7.3778324 1.0972223 25.251257
7.4252067 1.003727 25.38406
7.6912766 1.1030226 25.254154
7.6781301 1.2999313 25.254017
7.6637988 1.4682794 25.254173
7.5438895 1.7335677 25.348808
7.6341338 1.6335936 25.259495
-4.612905 -3.0659685 25.48596
-4.7600622 -2.8938103 25.463095
-4.9208999 -2.743454 25.4688
-4.6347013 -2.6839197 25.555908
-4.4360156 -2.649719 25.471365
-4.939393 -2.4743507 25.502489
-4.6420827 -2.4874341 25.412571
-4.4808059 -2.4945905 25.521494
-4.9139481 -2.2905393 25.473778
-4.6376295 -2.2577882 25.584656
-4.9327536 -2.1000583 25.527391
-4.6369514 -2.072597 25.453825
-4.5523767 -2.095484 25.47296
-4.6621828 -1.9295821 25.466963
-4.5661068 -1.9837644 25.493856
-4.1992803 -1.8596835 25.495415
7.88343 -1.9426754 25.549175
-4.9668989 -1.7430335 25.488909
-4.7368484 -1.7739053 25.511463
7.8959818 -1.6613262 25.557476
8.0122204 -1.7151338 25.460588
-5.0085192 -1.4536209 25.494024
-4.9857397 -1.5191557 25.492157
-4.7460055 -1.4923987 25.517841
1.0905051 -1.4449508 25.566353
1.2650843 -1.434679 25.537241
1.7381945 -1.4045702 25.447191
7.7207427 -1.4267719 25.499706
7.8852425 -1.495173 25.534977
8.0205307 -1.4720203 25.521786
-5.0301161 -1.310421 25.430792
-4.7536612 -1.2629955 25.530849
-4.5997858 -1.3726125 25.596386
7.7501283 -1.2781391 25.467077
7.9230661 -1.2850963 25.578915
-5.0235472 -1.1132326 25.467718
-4.8089719 -1.0183934 25.493347
-4.7084956 -1.1246531 25.55377
6.7960129 -1.1054395 25.564188
7.744833 -1.127206 25.460611
7.8037553 -1.1116469 25.526146
-5.0361958 -0.96635234 25.539902
-4.8228202 -0.90253067 25.516727
-4.7624245 -0.950719 25.529366
7.5983677 -0.963287 25.405319
7.7266221 -0.95022053 25.498917
7.8286295 -0.86330062 25.524355
-5.0352445 -0.72834444 25.508799
-4.9886589 -0.64121652 25.580498
-4.7707157 -0.70806968 25.503302
7.8365579 -0.63707441 25.457756
-5.0517821 -0.50530881 25.45809
-4.8323598 -0.49294651 25.556017
-4.7894502 -0.51320553 25.4165
7.5221248 -0.5295254 25.509119
-5.0607972 -0.30074713 25.448618
-4.8424754 -0.31640878 25.521473
7.4989791 -0.38172099 25.40283
7.7840028 -0.28325433 25.465622
-5.0912213 -0.10685039 25.449633
-4.8325963 -0.090732768 25.466125
7.1081758 -0.11553501 25.412361
7.5109506 -0.09168037 25.508007
7.7660332 -0.11675634 25.479639
7.8023009 -0.14652301 25.516045
-5.0880532 0.12082952 25.453186
-4.8704696 0.10481986 25.473631
6.9986663 0.16317998 25.565289
7.4987464 0.091166146 25.508528
7.7425623 0.083529592 25.448858
7.8072386 0.10426629 25.434662
-4.8992429 0.29460433 25.440966
-4.7303901 0.31743822 25.432209
6.993134 0.33394557 25.419134
7.488039 0.31081572 25.498276
7.7356009 0.26554018 25.507864
6.9903498 0.40872112 25.426426
7.4735098 0.49938619 25.498657
7.7358432 0.47983143 25.564821
-4.8685837 0.70655978 25.510647
-4.4521403 0.78736371 25.529448
7.4564447 0.77821255 25.467922
-5.0922637 0.80053347 25.528269
-4.9496555 0.87276232 25.52598
-4.2130871 0.81611383 25.473335
7.4499197 0.91362226 25.476915
7.6597281 0.92198777 25.483585
7.459722 1.0185655 25.54347
7.6527872 1.054745 25.488966
7.6154766 1.3622353 25.577141
7.6263466 1.5885887 25.585217
6.9910488 1.6814311 25.553858
7.384408 1.6073086 25.56167
7.5797958 1.69297 25.497589
7.7460747 1.7571021 25.530167
-4.544405 -2.8702538 25.776163
-4.5264406 -2.6978273 25.662262
-4.886704 -2.4967551 25.629654
-4.5025926 -2.49435 25.667297
-4.9205837 -2.3656263 25.742476
-4.5246139 -2.3695924 25.611996
-4.9366179 -2.1501493 25.619823
-4.6821618 -2.1226091 25.668367
-4.594348 -2.1035078 25.796886
-4.9371767 -1.8666761 25.660706
-4.6620774 -1.890492 25.731277
-4.9780531 -1.7360491 25.699051
-4.7306199 -1.6534393 25.621952
7.9196167 -1.7107159 25.678877
-4.7773409 -1.5019011 25.754591
1.4194627 -1.4109926 25.781124
7.9403634 -1.5128212 25.745623
-4.8080015 -1.2626754 25.677839
-4.7385316 -1.2738587 25.709682
1.8591838 -1.3844469 25.647211
7.9089117 -1.334411 25.741142
-4.8302369 -1.0902276 25.663536
-4.7676234 -1.1126844 25.698151
7.3779593 -1.0786871 25.681753
7.548667 -1.0091501 25.625124
7.8816328 -1.1164602 25.73177
-4.814415 -0.86150432 25.656065
-4.7801394 -0.93283194 25.699842
7.1391196 -0.97650862 25.779751
7.5953512 -0.95832127 25.726723
7.7477641 -0.96619236 25.737707
7.8541903 -0.86838681 25.742266
-4.8264823 -0.71724421 25.684519
-4.7954931 -0.61928058 25.704182
7.8867488 -0.75520968 25.743078
8.0050926 -0.72443223 25.641987
-4.8403687 -0.51226944 25.712549
7.8891015 -0.5317592 25.711367
-4.8453827 -0.28023744 25.709604
7.5769157 -0.29125297 25.73111
7.7983999 -0.20559502 25.785536
7.8641925 -0.30750543 25.710373
-4.8616409 -0.11912093 25.687263
7.5533185 -0.08272808 25.730087
7.7753029 -0.013790101 25.769892
7.854701 -0.11132221 25.751818
-4.8691244 0.086405791 25.650352
7.551146 0.071368948 25.768051
7.7878008 0.13898399 25.782696
7.8630724 0.079024985 25.727512
-4.9168725 0.35999525 25.702263
-4.7351427 0.29413623 25.708271
7.5438423 0.27857378 25.756365
7.7877302 0.26346952 25.752651
7.8986077 0.24827661 25.70484
-4.921092 0.44388235 25.71632
7.5115623 0.49349537 25.691788
7.7546449 0.52882141 25.782106
7.8935847 0.50373894 25.671274
-4.9247274 0.74102598 25.727646
7.5040822 0.68840134 25.712259
7.742919 0.71165305 25.760695
7.8873825 0.72444397 25.619183
7.4982734 0.89419287 25.726185
7.7249384 0.93338186 25.751688
7.8615861 0.91560483 25.666008
7.4915872 1.0269053 25.69562
7.7300725 1.0730919 25.74238
8.0769367 1.0619203 25.76585
7.5068998 1.24411 25.797531
7.5992045 1.544697 25.604784
7.6566658 1.7358302 25.734838
-4.586412 -3.0668213 25.887644
-4.8781219 -2.9360261 25.83494
-4.4681625 -2.9321678 25.998817
-4.5175095 -2.6768279 25.862225
-4.5845361 -2.457649 25.904493
-4.6548953 -2.3016992 25.824842
-4.5597711 -2.3724828 25.823727
-4.6608105 -2.0848813 25.940025
-4.5853772 -2.1350737 25.856276
-4.6274624 -1.9170464 25.974113
-4.3265839 -1.8826596 25.848572
-3.7412372 -1.8245544 25.885775
7.9618282 -1.8303239 25.895065
-4.7478991 -1.6999115 25.959721
7.9224434 -1.7597394 25.863239
-4.809495 -1.4146148 25.943468
-4.7677846 -1.4821935 25.867676
7.9406061 -1.5387211 25.87849
-4.7290006 -1.305284 25.919611
2.1027145 -1.3677925 25.897259
7.878686 -1.3033843 25.860651
-4.8306274 -1.1013517 25.974846
-4.7786217 -1.0885421 25.886814
6.5451064 -1.1297948 25.80514
6.689373 -1.1243958 25.983309
7.3172197 -1.079358 25.918472
7.5586715 -1.0742486 25.945656
7.9973078 -1.1117963 25.963196
8.0258913 -1.0342751 25.935867
-4.8371849 -0.91274434 25.845491
-4.7827783 -0.94198722 25.861017
7.8780336 -0.87624562 25.852301
8.0686007 -0.86049622 25.939171
-4.8397112 -0.71246558 25.873302
-4.7916117 -0.68138182 25.859268
7.872797 -0.68490219 25.84507
8.066802 -0.68069327 25.947021
-4.8348446 -0.56506586 25.901283
7.8639455 -0.49733669 25.844896
8.054924 -0.50373542 25.934612
-4.8742208 -0.29126066 25.910812
7.5976405 -0.30928928 25.800894
7.7993937 -0.2162403 25.83441
7.847878 -0.3046315 25.84878
8.0347652 -0.31918129 25.936571
-4.8684397 -0.11797538 25.863777
-4.6899147 -0.13078219 25.84037
7.5800629 -0.069630884 25.811081
7.7597528 -0.063638322 25.874342
7.8410435 -0.094577476 25.853609
8.0385103 -0.14706573 25.911682
-4.8698926 0.081385523 25.849888
-4.7189217 0.11139154 25.871763
7.5814781 0.093539178 25.843952
7.7816944 0.12092569 25.866261
7.8798428 0.10238748 25.873291
8.0365515 0.10695492 25.953691
-4.9362774 0.3008557 25.879358
-4.7568355 0.36730137 25.801462
7.5582042 0.28211308 25.824974
7.7768989 0.29952064 25.842848
7.8541913 0.31996062 25.866987
8.0201263 0.23256129 25.92581
-5.0018311 0.52166605 25.889301
-4.9249558 0.48003086 25.932053
7.5471826 0.50089425 25.820812
7.7615948 0.48865521 25.850718
7.8974695 0.50775725 25.896749
8.0096474 0.46305701 25.946892
-4.9567046 0.68893671 25.957632
7.5409575 0.74441791 25.847527
7.7613068 0.68844908 25.859858
7.9587302 0.71582764 25.949369
8.0398588 0.70668393 25.920786
7.5334892 0.88119519 25.847977
7.7488475 0.90469164 25.84487
7.935998 0.90691257 25.918991
8.0168438 0.82932901 25.992773
7.5357356 1.1363211 25.869484
7.7394528 1.0766072 25.860825
7.9048109 1.1089406 25.926819
7.1472516 1.7297192 25.947735
7.6783915 1.7509717 25.910858
-4.8840041 -2.8895547 26.057316
-4.567193 -2.8172836 26.123344
-4.6728792 -2.5562778 26.11562
-4.5266976 -2.4830875 26.160748
-4.6182775 -2.2851048 26.105448
-4.5523505 -2.328119 26.151283
-4.6521935 -2.1315458 26.128508
-4.6313 -1.9075727 26.10216
-4.4984493 -1.9370691 26.124842
-4.7431493 -1.5649781 26.118305
1.6735744 -1.4159584 26.091446
8.1487751 -1.4584233 26.053431
-4.8311062 -1.3025768 26.108818
-4.7578192 -1.3013147 26.137075
-4.5971756 -1.3162194 26.194841
2.213274 -1.367226 26.08547
8.0896645 -1.2416705 26.143656
-4.827899 -1.081893 26.144634
-4.7195044 -1.0732749 26.089783
6.8009329 -1.1133301 26.093128
7.2976685 -1.0643061 26.151485
7.4314337 -1.0627624 26.143169
8.0996065 -1.0665861 26.105768
8.2920513 -1.1236707 26.17132
-4.8160596 -0.90737838 26.112009
7.8531804 -0.95916027 26.011721
8.0718355 -0.90384948 26.0203
8.2211208 -0.99030638 26.02652
-4.8329902 -0.69686073 26.110041
8.0717335 -0.66015643 26.047552
-4.8522954 -0.47290313 26.0714
-4.6668558 -0.51748419 26.077778
8.0151482 -0.59175396 26.037807
-4.8801208 -0.31445572 26.092951
7.8506441 -0.25507322 26.145277
8.1305027 -0.35253742 26.003345
-4.9032736 -0.1165087 26.130106
-4.7105246 -0.1052389 26.089136
7.6432447 -0.015203178 26.08437
7.8098021 -0.044842571 26.104391
-4.8839264 0.10706798 26.092293
7.7205448 0.10397738 26.091671
7.8065071 0.095952719 26.061205
8.0128689 0.12144661 26.029655
-4.9233541 0.27425373 26.093681
-4.7448454 0.2303327 26.185776
7.698226 0.32722235 26.093872
7.9201598 0.33116391 26.081064
-5.0166874 0.49494633 26.08004
-4.9538312 0.58254761 26.086075
-4.7391262 0.5323264 26.13027
7.7166176 0.52721691 26.087105
7.9621577 0.52115548 26.02507
-4.9732504 0.7603212 26.071268
-4.7561359 0.62345898 26.061602
7.7287292 0.69922543 26.070448
7.960814 0.67697978 26.103958
8.0094814 0.74863446 26.147366
7.7116647 0.86115354 26.101587
7.9548268 0.9121955 26.026171
7.8689432 1.1344037 26.070459
7.3289251 1.7240275 26.09005
7.6933651 1.744 26.051991
7.8031206 1.7427964 26.123102
-4.6059628 -2.8093328 26.220442
-4.5160604 -2.8996983 26.26667
-4.8542633 -2.7751286 26.299213
-4.5202937 -2.7012789 26.267138
-4.9234056 -2.450386 26.24229
-4.6377978 -2.4511471 26.290016
-4.5440397 -2.5118527 26.30027
-4.717164 -2.2153838 26.226889
-4.7360487 -1.8924527 26.381905
-4.5660253 -1.9022546 26.299103
-3.9790895 -1.8527004 26.273626
-3.7774765 -1.8259336 26.360828
-3.5467956 -1.8104261 26.283386
-4.7579145 -1.7080225 26.275721
-3.0523231 -1.7833593 26.370884
-2.9926534 -1.7747018 26.33143
8.2671986 -1.6676716 26.32892
-4.8208418 -1.4835702 26.25061
-4.683609 -1.4934249 26.306887
-4.5903511 -1.5303781 26.38784
1.7509708 -1.4146411 26.260458
8.2318287 -1.5411947 26.253445
-4.6873999 -1.3150465 26.336069
1.9578729 -1.385438 26.230543
2.1562943 -1.3745275 26.334152
8.1341448 -1.2808868 26.397699
-4.8219857 -1.0119772 26.313667
-4.7292376 -1.1362727 26.281199
6.2404923 -1.1305883 26.356955
6.4969807 -1.0694047 26.267334
7.5713658 -1.0507027 26.334864
8.1231203 -1.0648662 26.254541
-4.8435779 -0.89114469 26.280348
-4.7832837 -0.91590852 26.329222
7.8588858 -0.85427719 26.200169
8.08496 -0.92114961 26.301012
8.214221 -0.8987608 26.307434
-4.8449326 -0.69459593 26.321655
-4.7928295 -0.79720497 26.312834
7.8413496 -0.73363113 26.240089
8.0213356 -0.64495385 26.340225
-4.8538456 -0.50652826 26.281788
-4.6940937 -0.51624751 26.212286
7.816328 -0.45395595 26.242247
-4.8745537 -0.26799643 26.315464
-4.7053289 -0.31807297 26.243748
7.8764572 -0.25222102 26.310532
-4.8885942 -0.12916741 26.29055
-4.7292113 -0.0054002404 26.372562
7.8793945 -0.075116873 26.291838
8.1396112 -0.12190413 26.351154
-4.9126244 0.081435934 26.323149
7.7802482 0.16389285 26.242517
7.892447 0.1079439 26.287989
8.1235342 0.15920594 26.350203
-4.9479814 0.24008708 26.333319
-4.7116632 0.27165884 26.342054
7.7740211 0.32502139 26.247364
7.8793654 0.304277 26.360022
8.1092367 0.3629142 26.34861
-5.0263853 0.46872699 26.325037
-4.9531045 0.49203494 26.307234
-4.7590876 0.52468312 26.327145
7.749259 0.52825415 26.246586
7.8506503 0.4735927 26.34952
8.0714989 0.48285967 26.397541
8.2575111 0.48650846 26.36517
-4.9381013 0.7345022 26.263784
7.7393169 0.72368723 26.247309
7.8429322 0.64317191 26.314276
8.0267754 0.75622129 26.262676
-4.2170238 0.81844032 26.268936
-3.1153061 0.88876438 26.291603
7.7485065 0.9339596 26.239464
7.8179932 0.93634099 26.295702
7.6539578 1.110356 26.232086
7.8523169 1.1490798 26.241016
8.0583553 1.0877001 26.286392
7.6351304 1.2721223 26.294128
7.8556724 1.2782829 26.292784
7.2625923 1.7108063 26.350969
7.7466688 1.7299985 26.302544
-4.4825506 -3.3170149 26.523468
-4.5007715 -3.1386454 26.436741
-4.9214258 -2.8733833 26.447283
-4.5280161 -2.8386118 26.499804
-4.642437 -2.6971917 26.527782
-4.5707855 -2.668427 26.523792
-4.6561818 -2.522048 26.520159
-4.6709805 -2.2955065 26.491364
-4.5873065 -2.3635113 26.542652
-4.6762347 -2.132818 26.509525
8.3186493 -2.0379593 26.503704
-4.6329269 -1.9399755 26.4613
-4.5411668 -1.92633 26.510704
-4.2597294 -1.881337 26.494942
-4.0628657 -1.852949 26.497721
-3.9733646 -1.8525598 26.413113
8.2961235 -1.881905 26.413363
-4.8214769 -1.7244844 26.530401
-4.7447834 -1.7514359 26.436447
-3.0149052 -1.765099 26.525852
8.376791 -1.6680464 26.46373
-4.8417783 -1.5628189 26.495131
-4.7830739 -1.4825652 26.501705
-4.5975809 -1.498569 26.49052
1.4500239 -1.4182605 26.467581
1.7316031 -1.4060594 26.4111
8.3316622 -1.4838033 26.511169
-4.8167233 -1.2257736 26.439917
-4.696064 -1.2758011 26.502203
1.9253259 -1.3721826 26.532682
8.2760172 -1.3058748 26.464573
-4.8169584 -1.0436032 26.451365
-4.7243776 -1.120736 26.449135
5.9576511 -1.1034687 26.550421
6.5103817 -1.1225524 26.440763
6.7258224 -1.1011609 26.497669
7.0111341 -1.0020018 26.541643
7.4685698 -1.0633126 26.568718
8.1793318 -1.0935947 26.455545
8.2602463 -1.0644064 26.498016
-4.850275 -0.91404843 26.532505
-4.7103028 -0.90276593 26.49437
8.1127224 -0.92475826 26.500408
8.2305355 -0.88425082 26.524403
-4.8386941 -0.70556188 26.548195
8.1598787 -0.68473196 26.568733
8.2453098 -0.70620608 26.56712
-4.8651829 -0.48093703 26.512392
8.0938845 -0.46271175 26.459377
8.2699547 -0.4638007 26.481705
-4.8851614 -0.28301007 26.510586
-4.7209263 -0.23093706 26.536423
8.1459055 -0.32606927 26.466827
8.2419577 -0.33928266 26.597061
-4.9212775 -0.098050267 26.492599
7.9260993 -0.084684849 26.485413
8.0932713 -0.18721759 26.532873
8.2255497 -0.084190249 26.594168
-5.0003738 0.17369351 26.557743
-4.8952041 0.076090515 26.440477
7.8942823 0.17205307 26.437031
8.2664356 0.05577895 26.592636
-5.0210056 0.37030736 26.494081
-4.9461727 0.3194302 26.486609
-4.7570562 0.30789712 26.491455
7.8906097 0.27126801 26.476171
8.1523294 0.32358834 26.493422
8.2408533 0.34247926 26.523905
-5.0076261 0.53452653 26.489006
-4.9544377 0.50331843 26.524233
-4.7387953 0.45865732 26.597519
7.8530078 0.55798095 26.423483
8.117178 0.49230939 26.465973
8.2193508 0.53197408 26.467937
-5.0234132 0.73717749 26.421562
-4.9661379 0.69474095 26.540644
-4.7964334 0.63031304 26.568701
7.8601112 0.7389158 26.417789
8.1118526 0.71061254 26.49283
8.2727385 0.67968452 26.502186
-3.4421864 0.86010993 26.551861
7.8727489 0.93510514 26.492432
8.0791807 0.89546216 26.528439
7.6883588 1.0820259 26.482199
7.8987794 1.1519746 26.529236
8.0742178 1.1389116 26.517181
7.6772022 1.2446451 26.441053
7.3049717 1.624256 26.498362
7.826664 1.7400297 26.523903
-4.9323912 -3.0935094 26.790047
-4.5670204 -2.8631907 26.67877
-4.6667724 -2.6529944 26.68479
-4.9949913 -2.4669514 26.675137
-4.6178985 -2.5588801 26.725262
-4.6359458 -2.3181772 26.642862
-4.6668053 -2.1301177 26.694159
-4.5513864 -2.0121107 26.679176
-4.9503813 -1.9118286 26.676704
-4.7374792 -1.8818159 26.692354
-4.5652628 -1.9584411 26.712
-4.1712174 -1.8472623 26.626648
-3.5025728 -1.8086374 26.68956
-4.7809587 -1.6711031 26.701513
-4.5811958 -1.6468223 26.741592
-1.0972507 -1.6216173 26.675808
8.2793827 -1.7047006 26.719124
-4.8703575 -1.4099872 26.775373
-4.6763458 -1.5109411 26.685644
1.5153232 -1.4121453 26.733727
7.9967589 -1.4106562 26.699291
8.3199072 -1.5048589 26.687302
-4.8039513 -1.3198674 26.710899
-4.7987146 -1.2420002 26.730635
2.2477131 -1.3521842 26.684189
8.2422009 -1.2581148 26.646042
-4.8602223 -1.0825016 26.682489
-4.637537 -1.1453102 26.696932
5.8974309 -1.156783 26.654287
6.4890308 -1.0768504 26.720156
6.6584816 -1.0244542 26.695406
6.9273129 -1.0020955 26.646366
7.9396973 -1.0513915 26.777988
8.0942421 -1.0240376 26.751078
8.2830772 -1.0605614 26.687365
-4.8423519 -0.89307976 26.681759
-4.6280823 -0.97966391 26.675442
7.3568192 -0.94355476 26.756531
7.9790726 -0.92133808 26.791998
8.1009645 -0.8940565 26.695419
8.2435198 -0.86230057 26.684977
-4.8529196 -0.71201026 26.711891
7.9828997 -0.72682321 26.790115
8.1038389 -0.65354395 26.759014
8.2590513 -0.71308315 26.723427
-4.8799014 -0.50558555 26.661777
7.9700999 -0.51726711 26.742783
8.1070499 -0.49391517 26.73505
8.2373571 -0.5014689 26.718958
-4.9148593 -0.27377123 26.739277
-4.7135429 -0.33395731 26.619392
7.9708447 -0.31333739 26.707993
8.1459274 -0.28175381 26.739212
8.2235937 -0.29260328 26.693377
-4.9154663 -0.106477 26.715982
7.687335 -0.04578644 26.727783
7.9737172 -0.099326596 26.708832
8.176733 -0.095374078 26.70071
8.2175493 -0.12152824 26.720608
-5.0140529 0.089796752 26.748055
-4.9280367 0.093509451 26.687199
-4.7595344 0.054145932 26.666544
7.9514346 0.099043041 26.726845
8.1586189 0.12750512 26.721739
8.211031 0.077288851 26.68989
-5.0137901 0.32215717 26.601379
-4.9395947 0.26675647 26.718529
7.9563465 0.2923528 26.710426
8.1609974 0.31426293 26.678865
8.2038631 0.24240439 26.776327
-4.9124413 0.42851159 26.722616
-4.7597361 0.54815024 26.755985
7.9431615 0.50382072 26.706747
8.1462326 0.50538105 26.697971
8.2332907 0.41219643 26.628365
-5.0181231 0.73295921 26.718842
-4.9762344 0.69010079 26.724012
-4.7772107 0.72876394 26.763435
7.9435697 0.67441803 26.7164
8.1500568 0.70244098 26.67384
8.2010889 0.64955449 26.721659
-4.9840069 0.87545037 26.640186
-3.5312827 0.90758592 26.695606
-3.2542367 0.89544058 26.774794
7.7993984 0.89059687 26.784811
7.9134297 0.90236288 26.722593
8.1135597 0.90724766 26.715826
-2.834609 1.0084075 26.635334
-1.9645195 1.0523798 26.730606
7.7487278 1.0603948 26.726856
7.9511957 1.1035833 26.758007
8.0983782 1.0812104 26.714752
7.9416046 1.2714337 26.690979
5.4380379 1.5760099 26.722376
7.8051281 1.5056174 26.668982
7.545886 1.7258072 26.7502
7.8682485 1.7198992 26.667479
-4.5563745 -3.077096 26.920162
-4.9576349 -2.8165982 26.936455
-4.4803953 -2.9481697 26.986141
-4.9543347 -2.701045 26.952908
-4.680728 -2.6771691 26.85902
-4.5670404 -2.6239946 26.879534
-4.6844091 -2.5056617 26.829178
-4.5629816 -2.5074053 26.88818
-4.6706743 -2.2962089 26.864119
-4.6607509 -2.1013288 26.877329
-4.8053265 -1.9096127 26.904587
-4.7044806 -1.8828303 26.919611
-3.9832349 -1.8477571 26.946613
-3.6132369 -1.8171172 26.893339
-3.4507258 -1.8147171 26.977575
8.2210016 -1.8435552 26.979813
-4.7491488 -1.7588408 26.836002
-2.9384346 -1.7689116 26.850792
-2.6040463 -1.6702664 26.995621
-2.4320931 -1.7445287 26.990139
-2.3808746 -1.7337282 26.899382
-2.0993259 -1.7329159 26.940361
-1.9318453 -1.7247547 26.989677
8.2877235 -1.7917916 26.908022
8.4038992 -1.6719278 26.955236
-4.6963062 -1.4670064 26.814224
-2.8179328 -1.5877094 26.999273
-2.6730745 -1.4383396 26.991776
-2.5226173 -1.4672971 26.992706
-0.50838518 -1.5872397 26.997982
0.16375899 -1.5338817 26.958029
1.1595459 -1.4487262 26.821775
1.5115364 -1.4067973 26.934603
8.100193 -1.446245 26.859211
8.2096701 -1.5259975 26.937019
-4.8334465 -1.2114012 26.84544
-4.6090894 -1.36256 26.935162
-2.8009162 -1.2885811 26.982662
-2.7554131 -1.2702775 26.991713
-2.5848193 -1.3704071 26.989666
2.2805696 -1.3559375 26.895756
2.4844453 -1.3418642 26.862188
3.1553688 -1.3205142 26.914671
8.0926161 -1.2067754 26.825581
-4.8647399 -1.1095077 26.890047
-2.8332889 -1.0637281 26.979603
-2.7580228 -1.0733823 26.9865
-2.0364373 -1.0325016 26.989513
6.0798845 -1.1049621 26.958553
6.8110976 -1.0005195 26.89785
7.8707089 -1.0580711 26.842136
8.1319513 -1.0691273 26.925644
8.2998877 -1.1384143 26.865627
-4.8565469 -0.89326388 26.913275
-2.8418651 -0.88578063 26.96977
-2.7954445 -0.97989309 26.981258
-2.2415986 -0.89701247 26.9585
-2.168323 -0.90433949 26.996027
7.8892784 -0.93394583 26.842733
8.1116123 -0.88113618 26.902403
8.2093801 -0.88507295 26.864843
-4.8909783 -0.69357789 26.932755
-4.656311 -0.6492219 26.899271
-2.8484228 -0.68434072 26.978804
-2.7984147 -0.78486538 26.988976
-2.4872026 -0.68928093 26.97794
-2.275928 -0.74158442 26.959923
-2.1743455 -0.70096582 26.981468
7.8933802 -0.70653623 26.868017
8.1192579 -0.69454098 26.88061
-4.8683872 -0.52359468 26.896029
-4.6553187 -0.58900887 26.896137
-2.8854346 -0.50580764 26.967527
-2.7543268 -0.57356954 26.972065
-2.5067949 -0.50032079 26.922047
-2.269213 -0.54381883 26.953989
-2.1777773 -0.51279438 26.985872
7.8845773 -0.50045919 26.878571
8.1113997 -0.49967325 26.868145
8.2462721 -0.47009125 26.858517
-4.8832598 -0.33014101 26.917084
-2.8723791 -0.3077943 26.976839
-2.5788336 -0.34409532 26.999767
-2.2567258 -0.31902903 26.961969
-2.1986711 -0.32720745 26.989584
7.8632956 -0.30513641 26.869976
8.0914917 -0.29953271 26.885439
-4.9335308 -0.097911783 26.91363
-2.8980536 -0.098559856 26.95122
-2.6821465 -0.062930107 26.979574
-2.583555 -0.13140374 26.994781
-2.2792959 -0.09716472 26.968765
-2.1873822 -0.18052194 26.993618
7.4870558 -0.054012358 26.977427
7.8462572 -0.092699796 26.865744
8.0791464 -0.094870992 26.880289
-5.0079145 0.14547232 26.983915
-4.931438 0.12393928 26.923029
-4.7172356 0.15735093 26.868988
-3.0232637 0.12324504 26.902388
-2.9046957 0.10507278 26.962048
-2.6968844 0.11883628 26.977236
-2.5294788 0.095360503 26.970488
-2.2755156 0.088987336 26.952646
-2.1884105 0.013028681 26.994104
7.3775921 0.092455767 26.969788
7.5371079 0.13084823 26.890343
7.85151 0.11230914 26.878435
8.0646839 0.081662774 26.875864
8.2124386 0.15562499 26.837591
-5.0217204 0.32718459 26.954363
-4.9530463 0.29366004 26.910345
-3.0242834 0.28390431 26.883839
-2.9103627 0.3184714 26.971067
-2.7123299 0.26796034 26.966276
-2.4282613 0.26953188 26.966461
-2.2674086 0.27877402 26.968781
-2.1312683 0.39698333 26.994558
7.4439549 0.35564628 26.923586
7.8850904 0.31352413 26.905903
8.0492544 0.30507872 26.883556
-5.0428257 0.57119453 26.936611
-4.9634581 0.54952401 26.841499
-3.0444448 0.48580486 26.882479
-2.914263 0.51394057 26.970375
-2.6842837 0.48777872 26.985985
-2.4016702 0.5859139 26.998707
-2.2979741 0.48569924 26.963606
7.3721571 0.42173019 26.923182
7.4566121 0.4533813 26.970209
7.7938733 0.49016082 26.821852
7.9247727 0.49844542 26.865562
8.0366945 0.50556493 26.887079
-5.0135317 0.72426724 26.943533
-4.9681563 0.70790797 26.898523
-4.7662811 0.67939216 26.919857
-3.0268998 0.69406891 26.892799
-2.8614349 0.66552621 26.982269
-2.6898854 0.77904677 26.988579
-2.3035526 0.73686755 26.953815
-2.1518226 0.63581288 26.993248
7.7909698 0.72514224 26.836617
7.9338217 0.69103831 26.887558
8.0482836 0.6952709 26.895519
-3.6335425 0.83160841 26.905964
-3.0409286 0.84283179 26.878242
-2.880506 0.84209543 26.987938
-2.6533098 0.95861763 26.993
-2.4124656 0.88992929 26.929514
-2.3485343 0.88628721 26.92495
7.7829609 0.89605421 26.864159
7.9472122 0.88846087 26.85071
8.0386896 0.88876539 26.845789
7.7938662 1.041945 26.9063
7.9265909 1.0708482 26.912109
8.051363 1.0718819 26.84111
7.9969525 1.3395203 26.968996
7.9134321 1.4477811 26.926935
7.3083739 1.7506547 26.883257
7.8930173 1.7151197 26.905725
8.014183 1.734517 26.973555
-4.9351907 -3.2826672 27.096336
-4.3824458 -3.2587748 27.119238
-4.4104643 -3.139854 27.103115
-4.5345283 -2.9625492 27.111
-4.9386883 -2.6562867 27.16794
-4.7480564 -2.6113896 27.084919
-4.5552292 -2.72825 27.132427
-4.9657469 -2.4660954 27.151871
-4.7392893 -2.5139384 27.080679
-4.5588379 -2.4676838 27.031353
-4.6274719 -2.3074994 27.109526
-4.6688757 -2.0908787 27.11216
-2.0444398 -2.0639648 27.084826
-1.8635683 -2.1468177 27.188627
8.4040585 -2.0935783 27.029097
-4.732697 -1.9089499 27.104063
-4.0012174 -1.8366042 27.158943
-3.955498 -1.8534 27.060633
-3.765363 -1.8426416 27.108231
-2.0398712 -1.9884013 27.083424
8.2444048 -1.9972427 27.062126
-4.8685651 -1.7117532 27.045498
-4.7842078 -1.6791223 27.062744
-2.84938 -1.7599165 27.021976
-2.7143774 -1.6062765 27.019203
-2.466783 -1.649071 27.011425
-2.3465014 -1.6791468 27.025013
-2.0589044 -1.658115 27.092691
-1.9344592 -1.6741945 27.103712
-1.7167747 -1.6567681 27.111996
-1.0853419 -1.6270728 27.063721
8.2552748 -1.6382754 27.18779
-2.9016318 -1.482131 27.093803
-2.6770656 -1.5102965 27.01799
-2.4623857 -1.4390249 27.018898
-2.2878652 -1.5140743 27.027655
-2.074295 -1.4960541 27.080402
-1.9176947 -1.4897423 27.132593
-1.6891652 -1.4974174 27.171276
-1.1967293 -1.4652605 27.176371
-0.049892902 -1.553695 27.160013
1.237114 -1.432301 27.110029
1.6159282 -1.4311974 27.049904
8.1462784 -1.468511 27.093012
8.2839031 -1.5439237 27.131746
-4.8620305 -1.2853364 27.088081
-2.9151406 -1.2920904 27.092983
-2.7145617 -1.2641423 27.009018
-2.5077844 -1.2971951 27.022779
-2.3286762 -1.3113962 27.026804
-2.0979424 -1.2967693 27.090651
-1.8464531 -1.3036268 27.108782
-1.7191571 -1.3486608 27.135731
-1.2941738 -1.2802374 27.152866
1.7888441 -1.3876088 27.032461
1.944911 -1.3925446 27.070999
2.2783601 -1.343996 27.166147
3.0479367 -1.2882299 27.123659
8.150404 -1.2951015 27.089905
8.2098293 -1.2481035 27.072138
-4.8505254 -1.1013966 27.093151
-4.6247025 -1.1129426 27.037704
-2.8913298 -1.119102 27.110798
-2.7293007 -1.103253 27.007423
-2.4846449 -1.098408 27.018841
-2.2913129 -1.0987846 27.031654
-2.1023505 -1.0965052 27.094934
-1.9005765 -1.0830417 27.111456
-1.7155226 -1.1085647 27.166761
-1.4494379 -1.0753005 27.137421
-1.3075066 -1.1076556 27.162836
5.1655064 -1.1154017 27.003946
7.258781 -1.0796487 27.132177
8.1179047 -1.0608643 27.064344
8.2376757 -1.0919591 27.039557
-4.8604422 -0.9502545 27.10243
-3.0093765 -0.90617788 27.191353
-2.8547044 -0.90848827 27.053841
-2.722754 -0.893884 27.006689
-2.4716063 -0.91154921 27.023869
-2.3033438 -0.91154182 27.025953
-2.1092212 -0.90758169 27.067492
-1.8803686 -0.98277783 27.085512
-1.7174987 -0.96284038 27.155678
-1.5170289 -0.9662658 27.16111
-1.3250316 -0.95055771 27.158075
7.1204405 -0.99243414 27.095058
7.223619 -0.97601444 27.042709
8.1342306 -0.90062308 27.074486
8.2301064 -0.83052552 27.14407
-4.8891201 -0.70312864 27.072613
-3.0079861 -0.6712693 27.192642
-2.8632302 -0.69717687 27.054514
-2.7281902 -0.72903353 27.034039
-2.5197868 -0.69280565 27.060028
-2.2513301 -0.66096777 27.055658
-2.1162224 -0.70685583 27.063854
8.1183634 -0.72687244 27.13685
8.2537279 -0.71777391 27.16098
-4.907866 -0.47668964 27.109077
-4.6663532 -0.49332684 27.179644
-3.0049057 -0.49690133 27.193069
-2.8712265 -0.49946985 27.031902
-2.7516382 -0.51177764 27.018677
-2.5032158 -0.42654586 27.070795
-2.2349732 -0.50925732 27.025534
-2.1354713 -0.48747173 27.06716
7.9523287 -0.52776432 27.167162
8.1117096 -0.47343856 27.194038
8.2342215 -0.46941718 27.161219
-5.011034 -0.2032795 27.097237
-4.8964257 -0.25018635 27.124691
-2.8872802 -0.28928393 27.063923
-2.7417085 -0.29214713 27.022703
-2.4179759 -0.24821858 27.025654
-2.2975116 -0.32926166 27.025528
-2.1395037 -0.29516986 27.076208
7.9020081 -0.24633808 27.064127
8.0972462 -0.27853608 27.142328
-5.0307074 -0.052689552 27.035439
-4.9222202 -0.096018292 27.101049
-2.8987978 -0.085234359 27.048117
-2.73946 -0.066510104 27.02363
-2.5123997 -0.088006593 27.020681
-2.2634997 -0.075743586 27.0378
-2.1562483 -0.086153999 27.076277
7.8893218 -0.090635657 27.054548
8.083147 -0.051371366 27.187548
-5.0187688 0.16983989 27.007401
-4.9447703 0.084958948 27.098978
-4.7157784 0.12950869 27.151766
-2.9257829 0.12028994 27.074041
-2.7340097 0.11788408 27.034704
-2.4925127 0.076686613 27.019186
-2.2422478 0.11687798 27.057793
-2.1532071 0.10687714 27.089239
7.8658934 0.17333937 27.045246
8.0696659 0.12877919 27.164721
-4.9592738 0.29868016 27.098612
-4.7383795 0.3178193 27.016531
-3.009244 0.29773781 27.108778
-2.9032121 0.3108252 27.027674
-2.7001095 0.28317925 27.031721
-2.5034099 0.29084381 27.031561
-2.2276797 0.30610988 27.057404
-2.1656508 0.27259433 27.086361
7.8837504 0.31222934 27.092487
8.0962029 0.31000647 27.061644
-5.0267839 0.5382024 27.0937
-4.9699855 0.47144637 27.125418
-4.7436085 0.4539783 27.102406
-2.8856485 0.52617425 27.025702
-2.7081683 0.49195629 27.029114
-2.4945452 0.52019167 27.040163
-2.2417629 0.49675205 27.052713
-2.1756651 0.50839669 27.092678
7.8653126 0.50128192 27.07848
8.0776834 0.52331483 27.077017
-5.026011 0.70886636 27.125774
-4.9793634 0.72008693 27.061806
-4.7648354 0.63437307 27.077051
-2.9020181 0.70528984 27.020369
-2.6841187 0.71903294 27.026447
-2.4896417 0.70548022 27.046097
-2.2574761 0.69695115 27.066748
-2.1657593 0.72502917 27.106834
7.8674641 0.69337976 27.09849
8.0671616 0.74127424 27.150616
-3.0645027 0.86185586 27.019665
-2.901221 0.84926701 27.025908
-2.7040234 0.85843742 27.020107
-2.4997933 0.88690847 27.047903
-2.2765551 0.88953429 27.066858
-2.1654353 0.88535577 27.119076
7.8439479 0.94145638 27.110094
8.0403128 0.87268996 27.083788
7.8630023 1.0731121 27.096413
8.0630054 1.0675266 27.129578
7.9831266 1.2445768 27.011108
8.0624561 1.2723746 27.180101
5.1813922 1.5803199 27.009373
5.5164714 1.5912879 27.043348
7.9534469 1.4860107 27.1371
8.0341215 1.4709963 27.197159
6.0018973 1.608297 27.19356
7.3887091 1.7342813 27.074839
7.6887698 1.7355019 27.010683
7.9374986 1.7818254 27.149656
8.0917091 1.7443371 27.173958
-4.8878984 -3.4999828 27.220392
-4.9379063 -3.3791509 27.379829
-4.6193433 -3.0357809 27.287102
-4.4319644 -3.045857 27.232029
-4.9589434 -2.9818337 27.359797
-4.6993241 -2.9290249 27.286964
-4.4462199 -2.988729 27.215006
-4.9597673 -2.6943994 27.362669
-4.7539749 -2.7990375 27.297691
-4.5412564 -2.7191219 27.308378
-5.0059986 -2.4985247 27.320179
-4.6122227 -2.4176488 27.308865
-4.6762662 -2.2672939 27.375704
-4.6853147 -2.1428351 27.375509
-4.8241 -1.8876721 27.325754
-4.7442141 -1.897136 27.302029
-4.512682 -1.9025514 27.239073
-4.2353187 -1.8734887 27.338341
-3.5847754 -1.826124 27.232313
8.388711 -1.9626968 27.238756
-4.8356218 -1.6540234 27.366467
-4.7885065 -1.7295426 27.285254
-3.0970664 -1.7933836 27.350416
-1.0823281 -1.6283767 27.316038
5.7568254 -1.615436 27.398413
-4.8675804 -1.4645112 27.335165
-2.057883 -1.4966705 27.232822
-1.693184 -1.4461617 27.204628
-1.5241005 -1.5404232 27.296167
-1.2402374 -1.5007818 27.216473
-1.1146562 -1.5201204 27.298061
5.9351816 -1.5435349 27.387222
8.2771435 -1.4714212 27.260502
8.4259624 -1.5658327 27.306501
-4.8687234 -1.2848495 27.353268
-4.6238294 -1.2305301 27.307323
-2.3285899 -1.2397226 27.220362
-2.0947909 -1.2954391 27.211037
-1.6812654 -1.2714822 27.280581
-1.4491515 -1.2108467 27.342087
-1.2532618 -1.3023015 27.226635
-1.1218632 -1.2954007 27.283207
2.5602627 -1.3295345 27.203259
2.6953201 -1.3211921 27.275969
5.5806584 -1.2494029 27.369312
8.3591442 -1.3011504 27.306425
-4.895443 -1.0839913 27.309042
-2.8674264 -1.0207366 27.344326
-2.3382239 -1.1332209 27.221231
-2.0884526 -1.086193 27.265965
-1.6749901 -1.0875937 27.262766
-1.458912 -1.1214268 27.295279
-1.2468481 -1.103163 27.21734
-1.1427805 -1.1119769 27.280817
5.6429329 -1.1248701 27.24543
5.8222656 -1.1079683 27.294647
6.1011877 -1.0540092 27.318258
6.2508726 -1.0531412 27.384743
6.6120572 -1.0298896 27.36165
6.9775448 -1.0836418 27.298882
7.6441517 -1.0603424 27.207815
8.1652527 -1.1279579 27.267288
8.3834572 -1.0298942 27.389078
-4.8896399 -0.86697966 27.323425
-4.6466169 -0.85424423 27.227676
-2.882232 -0.86710811 27.316572
-2.3307602 -0.87333775 27.249689
-2.0780203 -0.94799948 27.318382
-1.898983 -0.89540839 27.395132
-1.6589313 -0.95489228 27.305141
-1.5059695 -0.93948591 27.349934
-1.2191422 -0.94625294 27.229567
-1.1459471 -0.94789094 27.293156
0.92627263 -0.93373644 27.208809
6.1358752 -0.90073514 27.364891
6.2106323 -0.89880949 27.27857
7.987205 -0.90782887 27.270382
8.1166706 -0.90031534 27.246511
8.2627077 -0.86384106 27.347239
-4.8997874 -0.70187581 27.296988
-4.6594124 -0.7300508 27.259474
-2.9094925 -0.70102268 27.3797
-2.520072 -0.64891684 27.211971
-2.341023 -0.72835881 27.263683
-2.1224842 -0.6932891 27.244427
0.906914 -0.78067046 27.20759
6.1312003 -0.70571882 27.373398
7.9745259 -0.70031363 27.280409
8.1222076 -0.67137927 27.344297
8.2566376 -0.60300314 27.230289
-4.9234142 -0.47384223 27.301298
-4.6654387 -0.57776004 27.220966
-2.924448 -0.50351155 27.328739
-2.4966168 -0.47179219 27.211493
-2.3477883 -0.52291572 27.268648
-2.1380787 -0.43508932 27.25943
6.1142402 -0.51966101 27.35906
8.2015991 -0.52168834 27.329525
-5.0028934 -0.30792534 27.27969
-4.9310722 -0.29293376 27.320908
-4.6854239 -0.29658222 27.210033
-2.9243405 -0.33607846 27.282515
-2.6419344 -0.23605233 27.202776
-2.4866948 -0.28068274 27.208527
-2.3614602 -0.24670655 27.255945
-2.0979617 -0.34595087 27.361113
5.9799724 -0.25209975 27.392212
6.1099701 -0.31708616 27.363764
6.2036304 -0.22885497 27.288666
7.9554996 -0.25003022 27.249392
-5.0198274 -0.027789414 27.306702
-4.9355922 -0.13699178 27.305626
-2.9448075 -0.13908468 27.316343
-2.4583514 -0.073206745 27.205641
-2.3676667 -0.02497533 27.258316
-2.1431203 -0.077599905 27.283892
5.9955735 -0.013238251 27.38994
6.0993586 -0.096392527 27.360931
7.9294491 -0.064949393 27.233637
-5.0349908 0.16130516 27.207335
-4.9610453 0.10893741 27.338423
-4.7317233 0.15458168 27.336555
-2.9701302 0.087326266 27.319296
-2.4596033 0.089723364 27.205639
-2.3856187 0.14200373 27.26189
-2.1413569 0.12035016 27.328579
5.980258 0.12433027 27.383926
6.1273799 0.12722866 27.33519
7.9296913 0.11136252 27.30533
-5.0559292 0.39589885 27.21735
-4.9804564 0.28826457 27.284285
-4.7377553 0.25399125 27.283785
-3.0322418 0.26974103 27.204065
-2.9529462 0.21862748 27.21339
-2.4607551 0.27494159 27.208998
-2.3281124 0.2998226 27.299898
-2.1407104 0.30498016 27.276939
5.990963 0.22003236 27.38974
6.081965 0.29911506 27.346027
7.9139619 0.28339091 27.260958
-5.0079956 0.48380467 27.31801
-4.9907398 0.56408691 27.229036
-3.0275383 0.50332421 27.206961
-2.4309676 0.49155214 27.282259
-2.1899941 0.47264385 27.286417
5.9936442 0.50524986 27.382019
6.1326957 0.49530131 27.301083
7.9264016 0.5057199 27.35022
8.102191 0.49868277 27.36915
-5.0473785 0.69517022 27.302368
-4.986186 0.65209901 27.267103
-4.7746353 0.70270568 27.372799
-3.0163913 0.73667347 27.204468
-2.4310052 0.71010244 27.290014
-2.2209325 0.7182622 27.244736
-2.1472943 0.61997104 27.274723
5.959044 0.71747756 27.381195
6.0661812 0.68134636 27.342855
7.9002128 0.70832604 27.29599
8.0268173 0.74852782 27.372147
-3.4385359 0.85444868 27.310978
-3.2385554 0.87418056 27.24926
-2.4415939 0.92030811 27.274908
-2.2184539 0.89439547 27.23749
5.9566703 0.92502201 27.375322
6.0444269 0.88174504 27.349344
7.8811994 0.92335588 27.298119
8.143055 0.83718586 27.22327
5.9708619 1.0903277 27.390862
6.085556 1.1051389 27.30607
7.8924303 1.0964705 27.338467
8.1307859 1.0876317 27.256668
5.9458394 1.2749761 27.391382
6.0640931 1.3300148 27.302744
7.8859725 1.335616 27.331606
4.6526103 1.5344833 27.313427
5.9310732 1.5067357 27.389036
6.0472851 1.5566515 27.229599
7.9789062 1.5807024 27.240171
8.036232 1.4018191 27.304878
6.2151051 1.6447664 27.317291
7.9359093 1.7329885 27.261803
8.0247993 1.7391821 27.339355
-4.9865942 -2.7269399 27.530245
-4.9601245 -2.0247903 27.593819
0.065329552 -2.0779831 27.567076
-4.8362889 -1.862884 27.517275
-4.7512932 -1.8723342 27.47072
-4.4133029 -1.9001325 27.556177
-4.2582545 -1.8890833 27.541975
-3.2547739 -1.8061497 27.555342
0.073195934 -1.9083004 27.580013
5.6827936 -1.8230191 27.595936
-4.8477654 -1.6879728 27.48086
-4.7861652 -1.6746829 27.443253
-3.2228608 -1.7948364 27.422798
-1.3383079 -1.602493 27.400169
-1.1851462 -1.6466067 27.521811
-0.93617123 -1.6395334 27.502441
5.51757 -1.6598541 27.500233
5.7033558 -1.6563091 27.483871
8.3395214 -1.7132773 27.513659
-4.8610816 -1.5068614 27.49074
-4.790987 -1.4763002 27.448605
-1.2968502 -1.5036554 27.471987
-0.68997502 -1.5951098 27.593681
-0.22088623 -1.5639653 27.542812
0.17471147 -1.523454 27.579563
0.91218358 -1.4946918 27.528025
1.0970271 -1.4941939 27.545681
1.4505599 -1.4406266 27.593903
1.6634073 -1.4185312 27.576679
5.3142552 -1.4974518 27.577816
5.4688425 -1.4935567 27.547256
5.6958356 -1.4583794 27.502884
5.9096446 -1.5043259 27.409599
8.3087463 -1.4828913 27.433231
-5.0127401 -1.2237389 27.542002
-4.8695831 -1.3033602 27.488554
-4.623292 -1.2193315 27.500919
-1.7220023 -1.2872311 27.590263
-1.4227729 -1.2792245 27.41926
-1.3204035 -1.2819632 27.495739
2.2993357 -1.3460746 27.46855
2.6749802 -1.3518384 27.518192
5.3224554 -1.280763 27.563679
5.5307021 -1.3089584 27.54294
5.7281303 -1.3095988 27.504507
5.9712353 -1.3119328 27.410036
8.3153486 -1.3683186 27.546886
-5.0283427 -1.0501455 27.568748
-4.8752785 -1.0983413 27.482794
-4.6344981 -1.1000346 27.466616
-2.0612967 -1.0390927 27.475824
-1.9153786 -1.0438901 27.51276
-1.7100013 -1.0173579 27.485247
-1.4928383 -1.0344764 27.501251
-1.3199648 -1.0672303 27.489441
-1.1703022 -1.0007814 27.597111
5.3424869 -1.0876607 27.573927
5.4897771 -1.0705183 27.554716
5.6954236 -1.0846345 27.485693
5.9146776 -1.074075 27.462507
6.1199031 -1.0739599 27.458891
7.502471 -1.0690595 27.494205
-5.0486274 -0.88353425 27.554432
-4.8939967 -0.9141497 27.482483
-4.6433201 -0.99505162 27.535271
-2.1169479 -0.92912841 27.548399
-1.8996195 -0.9392792 27.545467
-1.7211405 -0.92933971 27.517471
-1.5208323 -0.94514394 27.558552
-1.3044677 -0.92732745 27.544281
-1.1731135 -0.93187314 27.484022
-0.89551187 -0.82987952 27.58882
5.3143811 -0.89295864 27.590647
5.4847202 -0.89463091 27.570793
5.7000241 -0.88183194 27.501511
5.9068584 -0.88174009 27.467825
6.0911484 -0.91956538 27.440121
8.0946665 -0.90193391 27.549507
8.2319336 -0.88367558 27.517498
-5.0555449 -0.73625529 27.549877
-4.9081907 -0.71221757 27.494873
-2.9276805 -0.71372914 27.475231
-2.1462727 -0.71621478 27.567942
-1.7542448 -0.64481014 27.557957
-1.4905499 -0.68364906 27.572794
-1.3833921 -0.72123289 27.575626
-1.0892603 -0.62385488 27.585617
-0.86666584 -0.70224327 27.592424
5.2973723 -0.67110312 27.582428
5.453721 -0.68826175 27.570175
5.7223167 -0.69198674 27.482483
5.8882699 -0.67629939 27.468548
6.0975943 -0.70161736 27.430948
8.0492334 -0.69311851 27.529791
8.2925396 -0.73808432 27.572077
-5.0901337 -0.52251923 27.556417
-4.919723 -0.519449 27.492182
-4.6757855 -0.4975583 27.543243
-2.9376116 -0.49785027 27.523022
-2.1539619 -0.51310605 27.57881
-1.8222132 -0.47380388 27.567259
-1.7422334 -0.49250928 27.567892
-1.5855721 -0.55451256 27.581411
5.2744741 -0.44074488 27.589703
5.4676595 -0.48336089 27.566032
5.7283216 -0.51319164 27.485754
5.9123712 -0.48123166 27.468893
6.0835347 -0.50040543 27.422831
8.085206 -0.52350163 27.451365
8.2431154 -0.44195282 27.484642
-5.107831 -0.31912994 27.55986
-4.9412746 -0.29571748 27.499126
-4.6909833 -0.34065089 27.511982
-2.9273834 -0.27798101 27.465185
-2.2589028 -0.2644867 27.526968
-2.1662309 -0.30346549 27.581848
-1.8192648 -0.24152684 27.580917
-1.7266109 -0.30223712 27.559656
5.2806573 -0.2661064 27.584803
5.4688296 -0.28731936 27.560347
5.7066283 -0.28200653 27.49439
5.9231167 -0.28743979 27.468227
6.0704446 -0.31366929 27.427687
8.0718536 -0.28344375 27.504347
-5.0909009 -0.098990776 27.54068
-4.9536405 -0.094977982 27.479551
-2.9719043 -0.11951315 27.429754
-2.2469201 -0.063212723 27.546192
-2.1807148 -0.12751743 27.581882
-1.8128201 -0.073796667 27.592552
-1.7275234 -0.082373746 27.561592
5.1995964 -0.076436251 27.59832
5.3293481 -0.05633124 27.581459
5.4709091 -0.10616452 27.537571
5.7305236 -0.09503819 27.493637
5.9108248 -0.090719119 27.469309
6.0604444 -0.10432564 27.424335
7.9831958 -0.073472656 27.465065
8.0728283 -0.098130405 27.580173
-5.0448217 0.087687202 27.545713
-4.9591112 0.068153732 27.495686
-3.0090451 0.16987547 27.451275
-2.9776444 0.048508495 27.473156
-2.2394502 0.12221038 27.542391
-2.1796784 0.073704436 27.5625
-1.8690499 0.15806003 27.544561
-1.7187774 0.094662122 27.579144
5.3353858 0.12007705 27.581373
5.4623675 0.085591711 27.545527
5.7022324 0.09110754 27.506414
5.9052444 0.11555009 27.479229
6.0537076 0.10456844 27.414574
7.9725776 0.072428182 27.473148
8.0309439 0.098431326 27.507498
-4.9736481 0.30416647 27.493876
-2.9823685 0.2484425 27.52845
-2.4205313 0.24034569 27.595917
-2.2268188 0.2874018 27.572639
-2.1786852 0.2768113 27.579914
-1.8315659 0.3096025 27.550695
-1.7230444 0.23445101 27.568838
5.1808572 0.33108777 27.593639
5.3471489 0.29804739 27.570795
5.5293326 0.31169859 27.525589
5.7171259 0.26823238 27.472702
5.8937278 0.32259446 27.477934
6.041894 0.30021328 27.419758
7.9550271 0.30064484 27.463272
8.0825233 0.23789699 27.530382
-5.0269203 0.51862997 27.508921
-4.9636283 0.51496935 27.477606
-2.9794831 0.42903295 27.570566
-2.4167356 0.57381654 27.433769
-2.2350328 0.47723931 27.563093
-2.1768613 0.51786 27.466175
-1.8591954 0.48673892 27.567438
-1.7228396 0.42405164 27.571356
1.9705281 0.4217653 27.539848
5.1799827 0.53328097 27.589195
5.3414731 0.50004107 27.572992
5.499969 0.51300639 27.506054
5.7055221 0.50167149 27.491869
5.9006124 0.50552011 27.476786
6.0166631 0.47831821 27.409782
7.9871392 0.44293872 27.528742
-5.031229 0.71921891 27.531029
-2.2413607 0.67899221 27.551262
-1.8648294 0.70283687 27.545788
-1.6905792 0.63243085 27.575043
5.1705785 0.7580694 27.591145
5.3361583 0.67895311 27.573143
5.4747419 0.73007268 27.536697
5.6769118 0.68543351 27.492954
5.9071536 0.69949484 27.460142
6.0056148 0.66786891 27.408175
7.9572773 0.68882972 27.514746
-3.1482468 0.91621089 27.499943
-2.2638965 0.91368949 27.552179
-2.1991305 0.85953599 27.407417
-1.8751463 0.87007195 27.542131
-1.7574909 0.8842802 27.569805
0.70019245 0.83313799 27.586937
5.1721244 0.9227587 27.582138
5.3264518 0.90155768 27.576637
5.4629688 0.88470435 27.527533
5.7129016 0.927845 27.470858
5.892705 0.90003306 27.463648
6.0220461 0.83868349 27.411077
7.9442959 0.89366984 27.506453
8.0529022 0.81871057 27.550219
-1.8887073 1.0012116 27.532927
-1.1789236 1.0974661 27.521469
2.0965781 1.0330224 27.548063
5.1642127 1.1576182 27.585024
5.3243504 1.1048906 27.576433
5.4810572 1.0871128 27.501896
5.6890488 1.0930364 27.480379
5.9111018 1.0943569 27.443941
6.0196047 1.0406408 27.400644
7.9420214 1.0977106 27.534521
8.0016527 1.0096461 27.415829
0.63495111 1.2160294 27.552937
2.071898 1.2262077 27.487057
5.151618 1.3100554 27.595577
5.3119173 1.2991877 27.579344
5.4848714 1.2996792 27.514935
5.7213755 1.3101453 27.46644
5.9007282 1.2869734 27.444309
7.9263816 1.2330637 27.45245
8.1410923 1.2794539 27.483044
5.3034902 1.4944602 27.556377
5.4962759 1.474215 27.506121
5.7472892 1.5085616 27.463537
5.9017539 1.4820594 27.438431
6.2112541 1.5534779 27.401604
7.9776335 1.4736621 27.419109
8.1500854 1.4921925 27.548714
5.4970107 1.6017224 27.41073
5.8884277 1.622527 27.407917
7.4533029 1.7157613 27.467304
7.9298525 1.6600863 27.528419
8.0741625 1.7109468 27.503897
8.0487728 1.8064655 27.423576
-5.0027266 -2.9559622 27.603058
-4.9041867 -2.0000396 27.737984
-5.0188227 -1.8937198 27.63378
-4.9667602 -1.8985962 27.65654
-4.1256413 -1.8660938 27.782116
-3.2428002 -1.8025979 27.702812
0.36209655 -1.9619998 27.628576
0.51249939 -1.9037012 27.629425
0.6564455 -1.8762074 27.667587
5.6955948 -1.9394659 27.65609
-5.0162039 -1.7079077 27.657576
-4.9901071 -1.7573177 27.735823
-2.8773119 -1.7343349 27.726166
-2.760998 -1.6672094 27.775528
-2.4094505 -1.777684 27.793718
-1.0983157 -1.6289377 27.649307
-0.90475333 -1.6206408 27.642094
-0.73422337 -1.6146535 27.661533
-0.47041464 -1.6125273 27.625776
0.56928349 -1.6273789 27.669807
1.7340798 -1.6284755 27.723127
2.1184051 -1.7014163 27.753736
2.3980908 -1.6558667 27.735064
2.8618255 -1.6679335 27.764332
3.3653977 -1.6914854 27.7955
5.5840855 -1.6960433 27.702749
5.6060724 -1.615243 27.609274
-5.0283675 -1.5063547 27.651539
-4.9886441 -1.4528956 27.608829
-2.8296962 -1.4955257 27.760235
-2.7645073 -1.4682242 27.770782
-1.718917 -1.4109262 27.609833
-1.461513 -1.4582459 27.780796
-1.2480659 -1.5189031 27.654411
-1.119171 -1.5232258 27.645081
-0.93860054 -1.5328153 27.666265
-0.6748473 -1.4915503 27.655739
-0.51654243 -1.4635305 27.670776
-0.30590644 -1.4823583 27.695063
-0.095374949 -1.4881803 27.679371
0.11159502 -1.4843862 27.699392
0.29425478 -1.4920471 27.716488
0.47746712 -1.4728636 27.669254
0.71134424 -1.4721334 27.711796
0.91777307 -1.4475616 27.718943
1.1384288 -1.4575578 27.687593
1.2495557 -1.4832114 27.650564
1.4971812 -1.466144 27.683353
1.6619759 -1.4176162 27.729607
1.8973913 -1.4586787 27.69088
2.0592172 -1.4727454 27.675423
2.3262343 -1.4426526 27.660484
2.5937896 -1.4328638 27.704115
2.8912468 -1.518898 27.774513
5.5316458 -1.4620507 27.661942
-5.032568 -1.2471883 27.653179
-2.8585196 -1.2992514 27.759247
-1.6870817 -1.2687924 27.612379
-1.5158796 -1.3179498 27.784695
-1.2800496 -1.3108764 27.643045
-1.1241775 -1.2943047 27.652473
-0.88876289 -1.2615761 27.658602
-0.71170193 -1.2837906 27.659788
-0.52214944 -1.2735797 27.677784
-0.29588231 -1.3263135 27.683691
-0.093343616 -1.3246675 27.706282
0.097144946 -1.271548 27.70755
0.30739275 -1.2952945 27.717594
0.48704678 -1.2916318 27.737118
0.69547439 -1.3044959 27.733978
0.896864 -1.3064265 27.748497
1.0940214 -1.3009022 27.775209
1.2883414 -1.2937821 27.771072
1.4916679 -1.3349191 27.780355
1.693864 -1.2747236 27.776659
1.9194123 -1.3395939 27.751072
2.2282777 -1.3358922 27.782465
2.4779634 -1.343244 27.707308
2.6898227 -1.3531989 27.699467
2.8887916 -1.3026972 27.740812
3.0997753 -1.3075088 27.751774
3.3770504 -1.2906425 27.721134
3.4744155 -1.2691684 27.736898
3.8979559 -1.2521794 27.697287
4.289187 -1.2236733 27.704493
5.4854469 -1.2728727 27.623581
8.2470245 -1.2799337 27.605234
-5.0415215 -1.1116315 27.66297
-4.6326866 -1.1192527 27.605919
-2.859071 -1.096432 27.753014
-2.7540431 -1.1479325 27.786547
-2.530077 -1.0691049 27.769028
-1.6880565 -1.0710293 27.615557
-1.5069556 -1.1194448 27.705471
-1.2543287 -1.0958055 27.633833
-1.1439294 -1.1087831 27.642431
-0.89947879 -1.0696447 27.656036
-0.67167646 -1.0959949 27.661514
-0.49679002 -1.0848716 27.675711
