# .PCD v0.7 - Point Cloud Data file format
VERSION 0.7
FIELDS x y z
SIZE 4 4 4
TYPE F F F
COUNT 1 1 1
WIDTH 1538
HEIGHT 1
VIEWPOINT 0 0 0 1 0 0 0
POINTS 1538
DATA ascii
-5.0840597 -0.44828045 61.544357
-4.9926801 -0.42670366 61.528889
10.188093 -0.5224539 61.420601
-5.0101762 -0.34326172 61.539333
-6.0090303 0.76806951 61.570812
-4.4352756 0.87505519 61.418358
-1.081409 1.1203883 61.472458
10.113168 1.7268273 61.509033
12.696683 2.1038668 61.447281
15.213665 2.1027327 61.583569
-6.4032421 -1.9675204 61.723534
-4.1475697 -1.8232661 61.741081
-2.6823659 -0.83864689 61.661888
10.241143 -0.42239547 61.656033
15.536721 -0.58688641 61.790588
-2.6878757 -0.28166062 61.681946
4.2612867 -0.30737805 61.705208
10.25342 -0.36851919 61.649765
10.193502 0.27045268 61.652058
3.6226733 0.61286581 61.695915
10.180227 0.88605934 61.731083
-3.6505635 1.14118 61.688866
10.17075 1.6828868 61.76104
10.209729 1.7975845 61.771259
15.308875 2.0917869 61.742729
-6.2481775 -1.9601903 61.880966
-6.1201687 -1.9528377 61.997131
-4.9843168 -1.870346 61.951374
-4.1194263 -1.8145714 61.939365
10.290737 -0.60503823 61.827728
14.651419 -0.63066912 61.836872
4.2664466 -0.51923633 61.805717
10.297981 -0.52723432 61.881081
10.269029 -0.29285228 61.846478
10.263335 -0.052213669 61.854416
3.5871866 0.13086146 61.994987
-6.390727 -1.9725332 62.194473
-5.228909 -1.8890222 62.197788
-4.8289952 -1.858058 62.080566
-4.4432564 -1.8441277 62.13858
-5.0253267 -0.6739881 62.122852
-5.0653815 -0.49435186 62.129955
10.364525 -0.53493148 62.186523
3.4821491 -0.35951123 62.192333
3.5321989 0.03238121 62.109306
3.612076 0.25473303 62.041317
3.5845306 0.42591739 62.051407
-5.1622372 0.7961427 62.192421
-4.9241476 0.81911904 62.098717
-3.6667223 1.2665862 62.115467
3.4553962 1.2973992 62.146843
10.274974 1.798774 62.176514
-4.1799212 -1.833835 62.30862
10.388587 -0.46055022 62.287735
0.56534141 -0.37858722 62.378223
10.332848 0.77638108 62.33062
10.330692 0.91152406 62.306534
0.91456568 1.226781 62.393276
3.2899041 1.4191319 62.342911
10.281587 1.7256811 62.244431
10.288352 1.8136144 62.29509
-5.6249137 -1.9133463 62.512733
-5.1716132 -1.8827586 62.438927
14.310801 -0.65954739 62.455757
0.62620705 -0.52127159 62.437515
3.4645391 -0.49168926 62.469376
0.66044611 -0.26267439 62.455841
0.61494368 -0.093222991 62.488602
3.4419894 -0.14875151 62.478882
3.4291768 0.19244921 62.481026
3.442764 1.0790319 62.49297
3.2800233 1.2611513 62.592896
3.4078536 1.3074888 62.506397
15.611914 2.135828 62.569218
-14.07158 -0.84679627 62.63834
14.529461 -0.64077109 62.77198
14.65151 -0.63483101 62.609985
-14.004066 -0.28492314 62.774601
-13.975778 -0.39413932 62.778419
-5.8473234 0.77800107 62.762993
1.9127983 1.285521 62.633938
2.2733464 1.3183101 62.651871
3.1404743 1.4104456 62.762547
10.351322 1.6654545 62.647522
15.291385 2.0879295 62.778625
-13.754156 -2.206795 62.902916
-13.766947 -1.9017974 62.864086
-6.0046124 -1.929914 62.949036
-13.785068 -1.6549177 62.889496
-13.805497 -1.437839 62.831291
-13.814327 -1.1009281 62.93251
-13.834938 -0.88298249 62.87114
3.5617738 -0.8662318 62.872715
-13.85159 -0.72335207 62.811684
-5.1360865 -0.65787673 62.892555
-5.1218042 -0.4854404 62.881329
3.5188866 -0.51392412 62.823441
3.5016313 -0.3069838 62.829147
3.4977174 -0.099511258 62.912354
3.4730668 0.10000634 62.833984
3.4693947 0.25502643 62.828087
3.4251666 0.45465621 62.818531
-4.9835 0.82204467 62.892033
10.429013 1.7193955 62.844425
10.39972 1.8121377 62.821598
14.19164 2.0505815 62.992912
12.976504 2.3207188 62.927559
-4.2773929 -1.8268859 63.011196
3.5057425 -0.70154011 63.045895
13.984149 -0.66463095 63.002167
3.4886985 -0.59929419 63.046928
10.404539 -0.58378476 63.004826
15.226629 -0.59382629 63.136559
-5.9591045 0.78442681 63.001137
3.3788657 1.3707263 63.136238
-5.5715895 -1.8864728 63.391983
-5.2855749 -1.883182 63.383362
-5.9360733 0.7856462 63.346874
10.530522 1.8102887 63.353184
15.125735 2.1081004 63.328926
13.176673 2.3378236 63.219357
-4.3440523 -1.8224308 63.517982
10.547826 1.5828142 63.405312
-5.3253083 -0.84849274 63.763157
-5.3001323 -0.70598227 63.755203
1.6804013 -0.67889762 63.73053
-5.1696529 -0.44098306 63.709766
1.6752107 -0.49385223 63.744385
1.6612389 -0.31335479 63.750618
1.7288767 -0.11217333 63.69688
4.7892289 1.1057616 63.757122
4.7742972 1.3258061 63.760162
4.6947451 1.481559 63.755409
-6.9762816 -2.2333899 63.818657
-6.0125489 -1.9120094 63.841137
-5.4814472 -1.8841363 63.9645
-5.015296 -1.8699465 63.811569
-4.898643 -1.8536024 63.877895
1.1205558 -0.7193768 63.990448
3.4729221 -0.70763797 63.885727
-5.1935177 -0.58676344 63.802502
1.0889583 -0.50483948 63.980476
1.2775675 -0.51336271 63.948647
16.308437 -0.54543352 63.843208
1.0596119 -0.2864421 63.953743
7.3481731 1.6806253 63.905014
15.251059 2.1201444 63.855011
15.549754 2.1271839 63.814018
-5.8033686 -1.8891045 64.191635
2.3140717 -0.65939629 64.086151
6.3139725 -0.77842045 64.127945
6.5326428 -0.67542851 64.149216
6.7023015 -0.71968377 64.139992
6.8606219 -0.63552868 64.133575
7.1700544 -0.64978945 64.182892
7.2045312 -0.69812357 64.191635
2.2728746 -0.41022053 64.125916
4.2190022 -0.50589323 64.023445
7.279047 -0.581411 64.155701
2.3449256 -0.2034843 64.034241
2.4116833 -0.29297075 64.020576
4.5737548 -0.3804557 64.040421
4.7189989 -0.32832092 64.032089
5.6789575 -0.34839147 64.118332
1.1095896 -0.10665637 64.127014
2.2809651 -0.081295758 64.048424
4.6774502 -0.09221828 64.026474
7.2981095 -0.079355717 64.192482
6.7283707 0.16781455 64.171333
6.9081564 0.065489411 64.179901
8.3903723 0.078179896 64.18589
5.4183455 0.3375929 64.000237
6.691596 0.30507627 64.184814
7.7461681 0.38817665 64.185547
8.1082439 0.2440106 64.190353
5.5547981 0.50079238 64.037598
6.523416 0.53628039 64.194237
6.6390009 0.43611479 64.171959
6.5145979 0.63986045 64.188156
4.8977542 0.85813332 64.044411
5.3022537 0.89427936 64.048843
5.2828484 1.1183629 64.055679
6.3752737 1.0983732 64.061096
4.5853596 1.3791254 64.022171
5.7509804 1.3447949 64.13324
5.8202319 1.2596686 64.030884
6.3075109 1.301633 64.103813
4.3193979 1.4641366 64.044479
4.7752218 1.5214227 64.080032
5.1551394 1.4770954 64.032631
5.4750271 1.4893512 64.04557
5.7876797 1.5185642 64.093872
5.8179402 1.4725578 64.028259
6.272831 1.553931 64.148064
6.5943918 1.538265 64.090912
6.9746413 1.4994596 64.161324
7.2924271 1.4934402 64.184555
7.7020569 1.4773505 64.170662
7.1097093 1.6099461 64.170425
-5.6612363 -1.8956082 64.21579
-5.2222719 -1.8781177 64.383018
14.088211 -1.0180407 64.2901
6.7936687 -0.65079868 64.210403
7.475338 -0.65768027 64.218613
7.8630676 -0.60374236 64.239029
8.7037868 -0.61269265 64.233559
1.6757166 -0.59628379 64.347031
7.4492927 -0.44121945 64.214745
8.5138502 -0.57159317 64.258804
8.6284857 -0.50380403 64.219872
9.051157 -0.5547002 64.312683
9.6667261 -0.49457127 64.352753
9.8220634 -0.56557858 64.365746
15.29126 -0.58428419 64.276871
15.863501 -0.56522882 64.29921
7.3897405 -0.227485 64.216042
7.5735722 -0.32841176 64.257866
8.4821758 -0.249318 64.208862
8.6765175 -0.39092064 64.254211
9.444253 -0.38342136 64.351501
9.8318949 -0.34103668 64.341286
1.6981206 -0.084473178 64.343063
2.5226705 -0.088353246 64.356956
8.4455748 -0.098114572 64.213005
9.3873053 -0.10717738 64.36496
1.7496334 0.06620273 64.34742
1.8624814 0.0096219331 64.312141
6.8865652 0.077565968 64.225906
7.0392928 0.060066938 64.206772
8.3154106 0.16626948 64.210365
8.4115791 0.020281851 64.216003
8.0039282 0.30647036 64.205917
-5.8476977 0.79570305 64.326706
8.4068031 0.81290913 64.202942
7.7971859 1.1645811 64.280838
7.5199842 1.5012835 64.257492
7.9317088 1.5118386 64.238152
8.1129417 1.5411439 64.258209
8.3580608 1.5770268 64.276375
8.4555721 1.4914446 64.276978
7.1789174 1.6261774 64.20076
7.8676782 1.6642689 64.316269
8.163559 1.683467 64.332062
8.3375053 1.6248255 64.255463
-5.703352 -1.883804 64.479584
-5.1006198 -1.8602133 64.495361
-5.4045391 -0.77853793 64.553009
-5.3468871 -0.69717473 64.506683
-5.0944262 -0.71937323 64.43248
-5.0602784 -0.59687257 64.511192
2.4356601 -0.55570018 64.582191
2.6076725 -0.50196767 64.462318
10.861342 -0.55002254 64.460007
11.348881 -0.44665578 64.454292
15.663048 -0.56523889 64.437004
15.886825 -0.55463141 64.515694
2.5518961 -0.25823939 64.515549
11.548813 -0.32944813 64.462471
11.711842 -0.27957764 64.491516
12.109956 -0.30934849 64.478851
12.344461 -0.36130765 64.484192
13.192545 -0.21724701 64.552887
13.35148 -0.27208042 64.533813
13.497565 -0.26070553 64.502434
11.782495 -0.090402067 64.454834
12.544394 -0.029550672 64.512489
13.276749 -0.18792754 64.494392
12.184045 0.19471133 64.482887
12.352757 0.052339375 64.504356
11.943128 0.36140281 64.501694
-5.793056 0.7755909 64.53788
12.637608 0.7064963 64.494034
12.818838 0.77589875 64.514465
12.312736 0.94815749 64.481842
12.878038 0.8352623 64.507889
13.214889 0.81737912 64.518921
6.1589804 1.5133896 64.486488
12.451002 1.5387313 64.499924
12.850228 1.4994998 64.505081
12.311838 1.7270792 64.489311
12.755745 1.7804115 64.499237
12.957986 1.667057 64.522675
13.101126 1.7638311 64.529373
11.873687 1.8705338 64.466385
12.027664 1.801656 64.455528
12.48447 1.885417 64.500961
12.647722 1.9140216 64.507973
13.085191 1.9182291 64.543503
-5.6544123 -1.8985987 64.677223
-4.6392584 -1.823077 64.688034
-4.3017063 -1.8130512 64.75016
-2.9341247 -0.84316391 64.65152
10.927837 -0.5236243 64.610542
-2.9176807 -0.33721209 64.737732
-1.2933002 1.0822105 64.729813
5.4525123 1.4692913 64.600792
-5.6442285 -1.8865581 64.934349
-5.3153553 -1.8681116 64.903191
-5.0238762 -1.8436781 64.864716
2.2371538 -0.46143764 64.905815
15.310487 -0.58344477 64.868652
15.69241 -0.5621751 64.942917
2.2204113 -0.2869997 64.88652
-5.8568873 0.79790616 64.830521
-1.2057478 0.80830705 64.867653
-1.4116611 1.0832696 64.805046
10.870391 1.6576133 64.998833
-1.0467925 -1.286516 65.117287
3.1324265 -0.42023799 65.144836
15.947778 -0.54853415 65.032448
2.8986716 -0.25506759 65.0737
3.1114166 -0.32156399 65.074066
2.9617248 -0.096694529 65.097038
3.1399028 -0.1472052 65.099419
2.9932837 0.058767989 65.134407
3.0167913 0.12811363 65.141685
3.1635664 0.27285016 65.061203
-1.1963868 0.90764236 65.173111
-3.7203681 1.1261091 65.075737
-1.2212844 1.0346071 65.156075
10.910504 1.7007463 65.139984
10.918764 1.8547015 65.12252
18.392275 1.8706491 65.028572
-5.6830406 -1.8746542 65.355576
-5.2623258 -1.8651633 65.342896
-5.1976423 -1.8539165 65.344467
-2.2300749 -0.66830188 65.223251
15.324701 -0.57313168 65.346764
15.89916 -0.54419428 65.247742
3.179579 0.024213195 65.204239
-5.6876454 0.78424156 65.228432
-1.2509236 0.88091761 65.331444
15.980685 2.1424088 65.306122
-5.4277377 -0.67839384 65.484642
15.275201 -0.58440053 65.517494
11.028419 1.6004429 65.461098
-4.9461474 -1.8366488 65.759224
15.610752 -0.55374002 65.711655
8.7304373 0.29260135 65.688011
10.02241 0.27685294 65.787743
-5.544076 -1.8781445 65.819748
15.734823 -0.54929256 65.86631
6.8878169 0.044327557 65.892944
9.7304821 0.39646339 65.877663
6.9660063 0.52237713 65.946953
-5.4845991 -1.8548422 66.027733
15.61256 -0.5530917 66.128868
16.210873 -0.52961862 66.122711
8.1134882 -0.016707599 66.16864
8.1289873 0.018579125 66.177414
6.924262 0.29370034 66.032776
12.153341 0.30754578 66.164429
13.080564 0.26851541 66.180756
12.931931 0.4746705 66.093193
13.038618 0.66500521 66.101006
16.121449 2.14048 66.036453
15.345718 -0.58015907 66.325882
16.166172 -0.53572345 66.377365
9.5174437 0.081618845 66.350845
11.107342 0.17310417 66.391876
12.253816 0.19436944 66.29171
10.250331 0.28952873 66.316124
11.141613 0.34988153 66.282875
12.289463 0.27093303 66.241318
11.222916 0.49049562 66.390167
12.271857 0.57154197 66.217133
9.5466175 0.66999686 66.275299
11.083663 0.69514459 66.316078
11.134269 1.6651213 66.313278
11.162566 1.8785288 66.210106
15.298792 -0.57450557 66.595825
9.338953 0.081003666 66.412155
9.4883747 0.0068622828 66.411346
11.19297 1.6198022 66.428238
-5.8795309 -1.8898368 66.758247
16.050339 -0.53884423 66.752335
-5.8329506 0.79649967 66.749771
4.203392 -3.2899995 66.995651
3.9836061 -2.5150044 66.969727
12.508644 2.0855513 66.936676
4.2498455 -3.432791 67.089066
4.0098238 -3.1264036 67.000435
-4.2016878 -2.6405702 67.086777
4.6966963 -2.6003752 67.102364
4.6167564 -2.3295972 67.199005
9.3243217 -1.131381 67.009987
4.4595518 -2.3280301 67.214966
4.5224371 -2.1595042 67.228218
4.7325382 -2.1453075 67.291061
5.8106604 -1.8061988 67.381409
15.02249 -1.1593208 67.370216
-2.2219346 1.0556849 67.386566
-7.0706053 -3.0458913 67.509666
15.114556 -1.0461942 67.404236
-5.8026304 0.78783393 67.485947
-0.62131232 1.1522828 67.578667
-0.33625647 1.1685568 67.494041
7.4595799 1.6368365 67.484322
13.301632 -1.4191447 67.673355
16.262009 -0.51579487 67.732521
16.7425 -0.50248575 67.794502
-6.1666384 0.77073336 67.663986
-1.8173513 1.0838143 67.672775
-1.2599841 1.1154808 67.615822
-0.41228735 1.1505146 67.715096
0.91213346 1.2467436 67.634377
7.6753025 1.6876584 67.632904
9.2273827 1.7510214 67.612106
15.96535 -0.5378809 67.966766
-6.3364601 0.76250041 67.925629
-1.7982333 1.0650012 67.931633
0.72008514 1.235724 67.821022
1.1283615 1.2577739 67.919197
2.6468844 1.3470298 67.901047
2.925359 1.3734674 67.974251
9.6903133 1.769685 67.877808
16.436726 2.2017016 67.99202
-2.5997376 -1.66321 68.14727
0.96668774 -1.4326696 68.191849
1.7822257 -1.3992972 68.083298
1.9533843 -1.3906018 68.196487
7.0625029 -1.0950893 68.006805
7.2346735 -1.0837623 68.098526
-6.3321905 0.75268137 68.154617
-4.6676641 0.89146948 68.142563
-4.1559887 0.91223085 68.193962
-3.9498248 0.93377447 68.154709
-1.5515738 1.1116152 68.090691
1.8665465 1.3043715 68.150658
2.1619473 1.3283135 68.149223
2.4759681 1.3274337 68.178963
2.7790668 1.3547832 68.088074
2.8895845 1.3684466 68.146294
3.3388925 1.3833885 68.09816
3.4871249 1.3875223 68.153152
12.518913 1.9582586 68.022697
12.668382 1.9762789 68.030891
16.498722 2.2116656 68.00798
-5.354763 -1.8233867 68.378189
-4.9862528 -1.8259425 68.327484
0.70299691 -1.4598804 68.324257
0.83678007 -1.4657686 68.243019
1.3114078 -1.4295032 68.379562
1.6045146 -1.4133079 68.350182
2.1977179 -1.3650645 68.362251
2.7026546 -1.3381577 68.355026
2.9273646 -1.3080015 68.329025
3.021764 -1.3110923 68.241508
6.7175379 -1.0818132 68.304932
6.9709044 -1.0924972 68.230194
7.1921549 -1.0513638 68.345871
8.1845427 -1.0015906 68.31897
15.991572 -0.5491091 68.288536
16.120392 -0.52831423 68.202988
4.0248728 -0.18573508 68.388657
6.4410582 -0.07202661 68.356026
6.3692856 0.1215107 68.357376
7.543756 0.031287134 68.282188
8.3143988 0.1805734 68.385979
10.391026 0.3356145 68.375534
-2.0974834 1.0547055 68.240059
-1.4000831 1.1004251 68.273758
-1.0333099 1.1140898 68.349915
0.1315437 1.1926092 68.270279
0.90754104 1.263418 68.310097
1.1495106 1.2656389 68.355881
1.5017593 1.2965502 68.225281
1.8849105 1.3043935 68.260193
2.4748476 1.3417727 68.296471
5.9317694 1.5563109 68.371597
9.1062775 1.7592757 68.321289
11.548323 1.9194405 68.289139
16.24548 2.1878979 68.372101
-2.9376402 -1.6799836 68.406448
-2.6514757 -1.6669402 68.508698
-0.26988709 -1.5236441 68.417831
-0.085040405 -1.5114915 68.559288
0.13191986 -1.4960858 68.494385
1.489069 -1.4170952 68.435661
1.8684633 -1.3863285 68.565872
2.2874017 -1.3568368 68.457932
2.8007021 -1.3224272 68.461884
3.2905736 -1.28918 68.491264
8.6437988 -0.97528327 68.550621
8.8086643 -0.9688642 68.576103
9.6758232 -0.92337406 68.518761
10.531661 -0.84133351 68.578011
13.109695 -0.71161771 68.402702
-1.5067024 -0.44923365 68.519745
-1.5241028 -0.2774263 68.548477
4.1388726 -0.29590037 68.501862
6.4786482 -0.2282604 68.484283
7.5749731 -0.29256809 68.505417
-1.5465775 -0.10460675 68.572319
3.4720674 -0.094860315 68.560066
4.0691071 -0.0551911 68.477814
6.4748039 -0.14564174 68.44912
7.5697327 -0.10456425 68.554947
8.2684069 -0.095027477 68.481644
9.1150303 -0.03218478 68.583122
-1.5571692 0.13189882 68.559021
4.0847564 0.12196895 68.577194
7.5477705 0.026850224 68.541992
8.2796974 0.04888171 68.471741
9.1173115 0.12545121 68.560234
9.8002234 0.054404259 68.586784
10.458379 0.13252294 68.472694
3.4694912 0.22617157 68.581764
4.0638466 0.20432028 68.511696
6.3686743 0.34677923 68.425247
7.5255165 0.37157968 68.56501
8.2461872 0.23893517 68.522079
8.9985676 0.29572463 68.582832
9.0930958 0.27258772 68.481461
9.6875229 0.33734554 68.488861
8.2116747 0.45553654 68.565125
9.0878859 0.5208841 68.583588
9.748251 0.54387462 68.582527
10.445352 0.57491529 68.528221
-1.4447768 0.78017652 68.409561
12.477874 0.70231628 68.525841
-5.1854763 0.82894886 68.536896
-3.0266724 0.97762525 68.5355
13.20857 0.80803877 68.560661
-2.5340645 1.031351 68.584183
-1.0767503 1.1115973 68.515198
-0.80230939 1.1459638 68.439316
1.1056312 1.2604938 68.403725
2.9200773 1.3698243 68.56089
4.9971647 1.4898877 68.571182
7.9823503 1.7104191 68.502411
10.775798 1.8428092 68.586266
16.015629 2.1647077 68.556
-6.9215078 -3.3558395 68.67749
-2.3232722 -1.6485825 68.703003
-0.26764739 -1.510941 68.736038
3.99301 -1.2464323 68.74025
6.1704202 -1.1165199 68.601601
7.1312943 -1.0766757 68.729065
8.4165602 -0.99935234 68.650238
8.6378613 -0.97378266 68.720825
9.4981451 -0.91880679 68.635368
9.7937565 -0.90985107 68.711533
10.845075 -0.85067606 68.705345
12.848454 -0.72390366 68.757111
13.988449 -0.65211904 68.686989
2.82985 -0.2860226 68.760384
3.5354125 -0.28044325 68.650726
7.5502024 -0.21910298 68.618622
2.7124677 -0.089714423 68.718155
4.1327887 -0.12129629 68.792191
3.4788096 0.17800747 68.64576
7.4510074 0.1449203 68.61792
7.8600588 0.19171911 68.656227
8.185092 0.10112375 68.645142
9.6781702 0.34298033 68.646271
10.324965 0.38995117 68.707924
11.159349 0.32571954 68.75415
12.530249 0.34199464 68.660439
11.04735 0.47367671 68.63813
12.377939 0.5415355 68.622963
12.425999 0.45113558 68.684639
13.042159 0.50719023 68.753159
-5.9433804 0.77514446 68.681091
11.158072 0.65381652 68.620758
13.845759 0.85128117 68.77504
-1.2228515 1.1254755 68.624939
-0.93461412 1.1366 68.763397
-0.67439175 1.1392308 68.628159
0.33880424 1.204103 68.624733
0.49726915 1.2081783 68.635437
1.6840987 1.2791952 68.777023
1.9119165 1.2966684 68.789482
2.5349684 1.3410058 68.779091
8.4395142 1.6955811 68.759819
8.8795891 1.741703 68.702538
-6.9612112 -3.0950353 68.814575
-0.071414024 -1.4963554 68.914818
0.93927926 -1.4384103 68.933182
1.6648616 -1.391943 68.927223
3.8500278 -1.2518926 68.897232
5.5654879 -1.1652901 68.899734
5.8776655 -1.1422384 68.874382
6.106884 -1.1229253 68.824501
6.3674583 -1.1078116 68.924484
6.4101062 -1.1132869 68.803635
6.620307 -1.087257 68.880379
7.9685192 -1.0226822 68.832657
8.9266815 -0.96390903 68.8162
10.088821 -0.89686191 68.845505
10.388224 -0.87161493 68.942116
10.587135 -0.87359238 68.929626
11.653629 -0.80768824 68.948845
11.760433 -0.78676873 68.869896
12.079654 -0.76188672 68.842407
12.630226 -0.74608266 68.864014
16.525942 -0.49817073 68.87719
2.115387 -0.32008529 68.857994
2.2613478 -0.25625023 68.967903
2.1317186 -0.16070673 68.888596
2.260644 -0.19719192 68.966591
13.778396 0.34529483 68.910774
13.728674 0.4762305 68.90596
-0.12884742 1.1687248 68.828636
0.090816677 1.197322 68.918533
0.55557793 1.2286528 68.859596
0.61630714 1.2321528 68.891273
1.1369548 1.2485616 68.904533
4.4717484 1.4705825 68.902489
5.9351492 1.5844848 68.959526
8.9460993 1.7254587 68.800835
-0.014671803 -1.5211247 69.125725
1.3814888 -1.4107562 69.181847
1.514555 -1.4096206 69.11599
1.8661747 -1.3911338 69.134987
2.0373867 -1.3717322 69.024948
4.5946865 -1.2186416 69.106171
6.3518543 -1.1011535 69.046852
7.952116 -1.0432228 69.100815
8.2600203 -1.0062257 69.072746
8.3669529 -0.99417853 69.181877
9.4532928 -0.91420031 69.164909
9.9885025 -0.90007412 69.121674
10.560592 -0.85656881 69.09803
10.767681 -0.85897481 69.11293
11.92684 -0.77001208 69.064911
12.971831 -0.71737611 69.017288
14.453161 -0.63376653 69.071777
16.799017 -0.50168896 69.107841
16.887394 -0.47223568 69.189491
14.255497 0.54885232 69.035065
-6.4240971 0.7417953 69.182549
0.41906261 1.2148196 69.073418
1.5304192 1.2791224 69.180496
1.7097325 1.2828519 69.035538
2.129231 1.3105404 69.050652
9.4080753 1.7703168 69.116127
-0.65742588 -1.5500124 69.395523
-0.32378665 -1.5162411 69.361374
0.47780421 -1.466208 69.275604
0.66847587 -1.4526742 69.336212
1.7143524 -1.3954118 69.244934
2.1423304 -1.3585778 69.267319
8.6136303 -0.96906531 69.309013
13.550314 -0.67191494 69.340294
13.884542 -0.67901623 69.387825
14.013939 -0.67186332 69.361748
14.75404 -0.60718393 69.395615
15.449489 -0.56120479 69.350403
15.998898 -0.54950917 69.250595
16.209866 -0.51434743 69.22364
1.8956373 -0.32792166 69.320755
1.8621322 -0.16136521 69.341415
1.8484839 0.10448432 69.33886
-0.65660107 1.1472769 69.388359
-0.21676636 1.1730616 69.297745
0.38812876 1.1996111 69.368843
0.80891895 1.2277265 69.389252
1.7178043 1.2951906 69.207603
-0.55395055 -1.5321984 69.492218
0.040510178 -1.4969869 69.509331
0.21097946 -1.486585 69.524414
0.51807857 -1.468739 69.434395
0.76184344 -1.436138 69.590401
0.8719368 -1.4486676 69.413574
1.7637353 -1.3802707 69.571754
2.1217453 -1.3573669 69.510231
4.3688712 -1.2172786 69.506004
6.012537 -1.1318014 69.525948
6.5008631 -1.0963252 69.505753
7.0137758 -1.0703015 69.431778
7.9505949 -1.018512 69.541939
10.639904 -0.84709966 69.447678
12.060493 -0.77548599 69.530563
14.088983 -0.65141642 69.529755
14.401113 -0.64916652 69.495354
16.086103 -0.52403283 69.475304
1.9914416 -0.29546502 69.450203
1.9716452 -0.18682754 69.462875
0.36256862 1.208367 69.465195
1.4562354 1.2940344 69.494614
1.7001936 1.2763022 69.410339
1.8961134 1.302474 69.516846
2.1713009 1.3161101 69.428978
15.981262 2.1620555 69.473137
16.506607 2.1801524 69.455948
16.619093 2.1910267 69.567322
18.040779 -1.6525036 69.736267
-0.35294059 -1.5048774 69.77494
0.15776253 -1.4820631 69.639946
2.18644 -1.3588985 69.627647
6.2837195 -1.1064788 69.760292
7.7804546 -1.0301239 69.775246
12.639223 -0.72599208 69.698235
14.721878 -0.61956125 69.772324
1.5180678 -0.40695071 69.748169
15.64374 -0.56518841 69.720581
16.899364 -0.48881376 69.619278
1.2808471 -0.28174549 69.631569
1.4025487 -0.24023603 69.679008
1.3913064 -0.10791425 69.77951
1.4611204 0.089457706 69.742935
-0.89899588 1.1300895 69.658592
0.34443623 1.1976824 69.661209
1.3442373 1.2673984 69.782471
1.6981945 1.2832094 69.749779
1.9975047 1.3226435 69.773895
15.447149 2.1140494 69.701553
0.11374739 -1.4747286 69.997009
0.32822561 -1.4720609 69.838142
1.0792224 -1.4217983 69.943253
2.0092177 -1.3735104 69.832039
7.0164652 -1.0642757 69.811684
16.197767 -0.52107894 69.930717
1.5486445 -0.34652859 69.952438
1.5412385 -0.17690374 69.921852
0.71458542 1.2323182 69.848068
1.2625632 1.2519392 69.924362
16.603565 2.1966987 69.84671
16.691002 2.201381 69.871262
0.67661166 -1.4612824 70.08197
0.89794886 -1.4349982 70.182976
1.1234806 -1.4330088 70.123627
1.2580128 -1.414512 70.111717
2.0203631 -1.3698015 70.187935
15.453416 -0.55490792 70.094757
16.813004 -0.47301829 70.177223
-8.676775 -0.20366879 70.18483
-8.6755352 -0.14344981 70.167336
16.941479 0.68830335 70.084854
-0.047540784 1.2028179 70.122475
15.816187 2.148993 70.149429
0.38427305 -1.4629705 70.323128
1.6697534 -1.3951509 70.228935
2.0055375 -1.3560462 70.35733
18.14761 -1.3719062 70.286903
-8.3892469 -1.1547613 70.208481
15.481903 -0.57060409 70.290161
16.80278 -0.47157246 70.311409
1.4200618 -0.33212507 70.327667
1.1113751 -0.13735762 70.25589
1.3278213 -0.14479941 70.372223
1.1941092 0.15559883 70.247414
1.2264595 0.045416437 70.283112
0.012367964 1.1856359 70.370071
0.5106082 1.2247837 70.210968
0.75888425 1.2352238 70.30043
0.91321039 1.2298893 70.394638
15.85692 2.1336262 70.383041
0.60112786 -1.4579636 70.473396
0.93292379 -1.4324174 70.43531
16.627983 -0.4881587 70.597191
-5.9857855 0.79382354 70.441803
-0.41256976 1.1700675 70.465202
0.015789866 1.1894164 70.422523
0.43970513 1.2122074 70.536903
1.142364 1.2434498 70.55291
1.5745149 1.2789519 70.452904
15.933219 2.1536169 70.434601
16.357086 2.164948 70.430992
16.765678 2.1938052 70.419037
-0.46704188 -1.5171372 70.6064
-0.083267003 -1.4988189 70.655113
0.58927166 -1.4600694 70.789566
2.0196946 -1.3565108 70.701813
0.80313826 -0.5170697 70.631058
0.78556985 -0.29879424 70.630203
0.83584309 -0.39537612 70.610611
0.96005785 -0.10500015 70.735825
0.96789086 0.013599854 70.655518
1.138033 1.2433455 70.668427
2.2046738 1.3168044 70.742195
16.332542 2.1733763 70.741318
1.1906313 -1.4215242 70.998207
1.238637 -1.4020069 70.932838
-6.1326637 -0.42188972 70.997986
1.1385273 -0.49228117 70.870766
16.126268 -0.52874064 70.82412
16.541327 -0.4937948 70.887955
1.1452579 -0.32535231 70.836494
1.1177192 -0.18112168 70.814163
-6.4663706 0.75865561 70.971283
0.30794108 1.1978538 70.819176
0.048295498 1.2057405 70.918777
15.958861 2.1624913 70.958488
16.480551 2.1728241 70.896408
16.991802 2.2269449 70.802185
-0.90429324 -1.5531014 71.05851
-0.70311248 -1.5331514 71.171165
-6.2317667 -0.66688752 71.068268
-6.1653271 -0.51883852 71.064331
16.106735 -0.5397386 71.073997
0.70310926 -0.39727822 71.194847
0.5210343 1.2143188 71.128059
0.72978663 1.2173814 71.038475
0.33463001 -1.4715208 71.252068
0.91984951 -1.4394045 71.308662
1.060977 -1.4417279 71.276718
1.2908373 -1.4203831 71.227753
1.8552989 -1.3910939 71.391434
0.47350073 -0.40677109 71.31813
16.889856 -0.48940098 71.353989
17.091408 -0.47611588 71.351089
0.5661183 -0.24332324 71.24881
0.92616868 -0.30204093 71.289154
0.68499815 -0.0011204481 71.2071
0.85022086 -0.15575291 71.32444
0.74953306 0.052990485 71.245399
0.15731466 1.1838088 71.328384
0.70334017 1.2016995 71.234756
0.83144546 1.211112 71.293716
1.0803035 1.2288373 71.259224
16.998217 2.2117856 71.248291
-0.99064988 -1.5512791 71.552956
-0.53060961 -1.5265536 71.436066
0.23691753 -1.4736695 71.406677
0.78328037 -1.4495213 71.43486
0.94067562 -1.4415411 71.585518
1.7142009 -1.3777754 71.540718
16.890898 -0.4792825 71.522308
0.38411403 1.1974144 71.42807
0.48889399 1.1988174 71.434456
1.3129939 1.2493539 71.461044
-0.59451467 -1.5285852 71.79628
0.35704994 -1.4746528 71.640602
16.113451 -0.52516359 71.773132
1.9220679 1.2894835 71.658997
16.801085 2.1966085 71.655518
17.048664 2.1995826 71.633362
-6.2974176 -1.9346398 71.992508
0.53718001 -1.4722854 71.898216
0.76359773 -1.4432468 71.900352
2.1102815 -1.3687233 71.862144
-11.389334 -1.1229589 71.989471
0.45321098 -0.40323263 71.974648
17.166519 -0.47403288 71.982468
0.34052646 -0.33737731 71.973694
0.64102638 -0.37911862 71.979164
0.52347624 -0.0023679286 71.960655
0.57666069 0.055212513 71.974075
-0.84677386 1.1308401 71.824783
0.47668171 1.180324 71.919617
0.92778373 1.2160652 71.946777
16.524096 2.1742606 71.992241
17.106552 2.217452 71.881393
-0.72893125 -1.5440339 72.058586
-0.47610563 -1.529327 72.06546
0.26276648 -1.4791586 72.143532
1.4748204 -1.4072436 72.051468
2.0426536 -1.357824 72.189476
17.491192 -0.45053208 72.031372
0.42221254 -0.21252218 72.022072
0.68803036 -0.29639566 72.08596
0.60645199 -0.14902915 72.076973
-0.42947125 1.1499119 72.131195
-0.28322041 1.1442035 72.028954
0.89957386 1.2048584 72.025826
2.185214 1.3330305 72.055191
16.648916 2.1966257 72.0867
16.917437 2.2059753 72.001778
17.09444 2.2232141 72.01889
-0.28475046 -1.5228366 72.287376
1.1879373 -1.4309412 72.299522
1.5912821 -1.3962414 72.342453
-6.2529168 -0.46678051 72.399078
16.76115 -0.49133742 72.296921
17.358843 -0.454512 72.323784
-6.2341838 -0.33483887 72.372223
16.578291 0.56766927 72.289497
16.43095 0.6711024 72.221069
16.608438 0.96861094 72.310814
-0.74755692 1.130329 72.364487
16.243748 2.1614008 72.363487
17.144194 2.2197108 72.263153
0.15243506 -1.478302 72.43148
1.0347503 -1.4395694 72.447113
-6.3292494 -0.60808432 72.461922
16.561966 -0.50458956 72.461823
16.867619 -0.48213589 72.522537
17.050337 -0.46452892 72.407127
0.39612564 -0.3842653 72.591568
0.72381735 -0.36710042 72.588799
0.93370366 1.211295 72.477318
16.602762 2.1915555 72.595245
16.819078 2.2119706 72.54203
-0.49467307 -1.5311656 72.726357
-0.27920237 -1.5202324 72.776909
-0.15168929 -1.5092851 72.742737
0.19050606 -1.4766315 72.758194
0.24368465 -1.4868739 72.694771
0.83040512 -1.4343241 72.739594
1.6139712 -1.3898212 72.698357
0.58894473 -0.43285659 72.639862
16.545027 -0.49746901 72.744293
0.31263989 -0.26728669 72.689545
0.40082628 -0.32165539 72.604668
0.66935271 -0.24518037 72.646935
0.37682307 -0.10152272 72.682549
0.48758078 -0.079890728 72.64753
-2.7126644 0.36120963 72.711693
17.247555 2.2225113 72.718117
-6.1552706 -1.8939312 72.901176
1.1514132 -1.4105173 72.894165
-0.44427657 1.1517431 72.930466
0.76356745 1.2190374 72.93689
15.779935 2.1468921 72.826134
17.133429 2.2260723 72.916077
-1.630554 -2.5243878 73.093208
-6.175251 -1.9115715 73.023743
16.319668 -0.51363343 73.178246
16.992588 -0.47191811 73.02256
17.07608 -0.45619601 73.110123
17.327694 -0.45621157 73.126366
0.51583266 1.2096039 73.096169
16.846006 -0.48521972 73.361549
1.5010409 1.2799202 73.297684
16.947954 2.2081447 73.384445
17.355003 2.2338972 73.229301
0.7325027 -0.40732849 73.520081
16.477705 -0.51207823 73.536797
0.27922034 -0.28975776 73.497681
0.5003258 -0.32048693 73.457657
0.64530611 -0.25988519 73.517265
0.34516376 -0.16540408 73.531136
0.45879084 -0.029439028 73.425026
0.52054894 0.071281664 73.410812
-0.52261424 1.1444701 73.414635
0.0076398849 1.1766709 73.402206
16.322083 2.182272 73.509438
17.011049 2.2198977 73.566254
-6.2883444 -0.66200304 73.727859
-6.434094 -0.5297693 73.757881
-6.3064795 -0.56680149 73.744408
-0.5451175 1.1427695 73.675224
1.1628108 1.245096 73.773468
16.205149 2.1738787 73.668434
17.278879 2.2255332 73.657883
17.513323 2.2446415 73.707603
17.716499 2.2437835 73.768097
11.329132 1.0675831 73.93763
2.1455958 1.3080246 73.802063
9.6787434 1.6626847 73.963615
16.156324 2.1701672 73.860382
16.381905 2.1761558 73.810684
16.858957 2.2053943 73.904556
17.655289 2.2283354 73.851669
-6.2950873 -1.9028379 74.009003
-6.3632483 -0.62051332 74.094307
0.49857974 -0.37011954 74.169334
0.70562148 -0.36255381 74.192093
0.46976656 -0.030362662 74.195503
0.4891656 0.073856972 74.174744
-0.031125546 1.1698326 74.047134
20.406946 1.2146363 74.19162
9.2844763 1.4289132 74.098648
16.587324 2.1968489 74.11647
16.665749 2.2124441 74.196678
-6.2926283 -1.9080114 74.38942
-5.831769 -1.8898289 74.263397
0.32758367 -0.28620157 74.298058
0.43775576 -0.26027617 74.22467
0.67947996 -0.23646513 74.210739
20.433544 0.70416898 74.228981
20.43935 0.83667159 74.219292
-0.5993495 1.1280236 74.311409
20.417084 1.0483193 74.223969
2.1145856 1.3360844 74.316025
20.397587 1.275864 74.233864
15.589844 2.1395397 74.245575
16.26243 2.1732969 74.219604
-5.9728336 -1.8864008 74.426193
0.61060804 -0.34150168 74.599678
0.53100491 -0.027252555 74.599266
0.49107677 0.074009575 74.590172
0.33390689 1.1702009 74.472664
0.81028414 1.2182291 74.446594
16.378128 2.1785107 74.495354
17.912357 2.268724 74.487747
18.002239 2.2673631 74.460739
-6.2373309 -1.9051785 74.600914
-4.3038797 -1.653109 74.618156
0.30698177 -0.30531374 74.634087
0.62942541 -0.25360811 74.661385
0.39762253 -0.18681665 74.693001
0.48196805 -0.11820041 74.690079
0.44894478 0.032134857 74.603516
16.840471 2.2000999 74.754433
-6.0919876 -1.8979214 74.939423
0.40145278 1.1546372 74.994667
1.7234087 1.2725211 74.91655
1.9601047 1.321424 74.949104
17.907322 2.2621183 74.820549
18.013596 2.2714243 74.883911
-6.2257409 -1.8976157 75.131927
-4.2244067 -1.6599478 75.001556
16.726189 2.1945739 75.046883
0.4573707 -0.27986801 75.358551
0.71202499 -0.28167024 75.30603
0.84520626 -0.33812678 75.250687
0.57512552 -0.034103129 75.278862
0.47329962 0.013668485 75.346466
-6.3065076 0.78419548 75.232002
-0.06668973 1.1203614 75.268784
1.6254482 1.2530179 75.389252
17.627041 2.2594814 75.27887
17.894882 2.2672977 75.255318
18.151804 2.2767153 75.214455
0.43848807 -0.23058838 75.406418
0.52011138 -0.14802857 75.402443
-0.50163615 1.0942917 75.425323
1.1787547 1.2290317 75.465904
1.9726915 1.2866925 75.581726
17.955524 2.2558043 75.593285
17.914358 -0.40738857 75.676971
1.6209698 1.2683575 75.788765
17.058128 2.2116137 75.788445
17.464216 2.2343311 75.686737
0.46779364 -0.30664471 75.992134
0.85393631 -0.27547553 75.971794
0.66451967 -0.024245497 75.952118
0.59432685 0.082121521 75.972618
0.68160474 0.08818458 75.908981
-0.18912977 1.0942447 75.869934
-0.71736789 -1.5533506 76.075897
-0.5558691 -1.5243281 76.164848
-0.34532428 -1.5107064 76.130226
1.2348793 -1.4322714 76.043915
1.8795905 -1.3911388 76.160866
0.52458125 -0.22563976 76.014107
0.85204923 -0.31697443 76.000618
-0.12504089 1.1173249 76.170326
0.63057458 1.1790184 76.027222
1.062443 1.2320833 76.149696
1.2804004 1.250001 76.150497
-0.64813888 -1.5537341 76.397972
1.0502554 -1.4546969 76.340469
17.294367 0.70463306 76.275658
17.335941 0.93828344 76.270622
-0.9326551 1.0849144 76.343491
17.339788 1.0886005 76.355003
1.7714376 1.2773612 76.310242
15.758148 2.1530504 76.347229
0.93495655 -1.4582981 76.491051
1.2331663 -1.4404905 76.439621
0.98772562 -0.35629681 76.539856
1.0365099 -0.29163286 76.511665
0.81645107 -0.02207442 76.570457
-1.1029758 1.0957001 76.506157
-0.21312755 1.1193788 76.560608
0.66262114 1.1867888 76.455528
15.71857 2.1597915 76.426056
0.92738867 -1.447735 76.600662
0.69960946 -0.32239714 76.701546
0.82021153 -0.20838855 76.645172
0.77173781 -0.11820719 76.71965
-6.3860798 0.785456 76.695808
-0.95740867 1.0995893 76.742668
0.74140322 1.2024502 76.604546
5.083405 1.2937293 76.676239
18.468203 2.3075142 76.792198
1.1121247 -1.4307734 76.886909
-1.0436335 1.1182041 76.965996
-0.73887062 1.1306212 76.909164
0.19138145 1.1498538 76.80278
0.63683558 1.180681 76.92363
1.3734825 1.2577065 76.890526
-6.6478119 -1.8980073 77.086823
1.4917157 -1.4297267 77.144829
1.0974944 -0.33619687 77.198143
-6.7679195 0.77245438 77.112755
-0.92680454 1.1282713 77.094063
-0.78331232 1.1451327 77.190491
-0.44610643 1.1651815 77.060638
-0.27342081 1.1754375 77.083519
-0.046776772 1.184119 77.175743
0.0043420792 1.1565425 77.168556
0.23433256 1.214825 77.166107
0.43253517 1.2108953 77.037399
0.87137985 1.2005939 77.15226
1.1706495 1.2247423 77.07785
1.4785719 1.2487607 77.13372
11.145312 1.5719382 77.099968
11.12619 1.6442442 77.082893
18.128109 2.3027709 77.089523
1.7810025 -1.4028913 77.242691
0.76095688 -0.26710823 77.370918
0.83272356 -0.29820022 77.331978
1.0720196 -0.23424561 77.240974
1.2648877 -0.28971139 77.299629
0.99165249 -0.1148665 77.309914
1.0176494 0.0034787031 77.20993
-6.0848522 0.82310945 77.342751
-0.49721903 1.1203825 77.358932
-0.11266136 1.1630929 77.24234
0.11232948 1.1895336 77.281876
0.32838392 1.1808826 77.28833
1.6771278 1.252532 77.293549
16.654261 2.1965456 77.320152
18.634115 2.3076234 77.207298
-6.5400867 -1.88965 77.510429
-5.9251366 -1.8616011 77.511108
-5.6053314 -1.8463049 77.475067
-5.452116 -1.817874 77.473289
-4.7436886 -1.7683744 77.546516
-4.512167 -1.7715018 77.56369
-4.3708062 -1.7435632 77.565269
1.2898929 -1.4231024 77.551231
1.9082191 -1.3978968 77.519745
1.4835196 -0.32333329 77.597359
-0.50366735 1.1319201 77.493973
0.28313833 1.1753987 77.503357
17.458752 1.0934023 77.488007
0.74539065 1.2411606 77.510834
0.89496708 1.22978 77.513908
1.5483552 1.2674524 77.521439
17.381035 2.2502708 77.5317
18.218536 2.2883477 77.490311
-6.2809315 -1.8796352 77.726334
1.5171027 -1.407322 77.688919
19.778223 -1.5740147 77.781776
1.0446924 -0.22612259 77.760345
1.3292898 -0.23760779 77.620056
1.438634 -0.22869225 77.609978
1.037169 -0.16810088 77.788155
1.1550295 0.05001545 77.656754
17.225584 0.57482314 77.7444
17.231539 0.75680459 77.725273
-6.2968583 0.80269814 77.704796
17.325665 0.90528089 77.729065
-1.551802 1.083563 77.719269
17.311611 1.0424136 77.798973
1.3362484 1.2486675 77.719841
-4.892848 -1.7994118 77.882225
19.840542 -1.4664798 77.921928
-6.6200523 0.78610617 77.935158
17.343616 0.7588076 77.811768
-4.321723 0.92323422 77.995407
-1.6909107 1.0721049 77.981392
0.2893858 1.1884677 77.953506
0.36497366 1.2023487 77.907036
0.6192255 1.2189792 77.919014
1.2228975 1.2669921 77.866791
1.4653988 1.2741795 77.848579
16.262913 2.1947837 77.835052
16.950603 2.2314396 77.942337
-4.2351241 -1.7614617 78.105835
-1.4698274 -0.46246451 78.086464
-0.62584668 -0.42120734 78.161301
-1.4672862 -0.35822034 78.102333
-0.62711662 -0.36455771 78.155891
0.08781293 -0.33401662 78.178116
0.80636698 -0.26645395 78.185104
1.4888029 -0.27883786 78.144615
18.641642 -0.38275051 78.195786
1.597322 -0.17634453 78.178055
1.4139488 0.074841417 78.133728
-6.074553 0.82209647 78.136078
-5.5941696 0.83324277 78.132355
-4.5360632 0.90089685 78.038612
-4.3269415 0.89986736 78.021973
-0.24325295 1.1513953 78.171745
-7.4670658 -3.4748316 78.295296
-7.4758854 -3.3164303 78.20285
-5.9971709 -1.8693106 78.213036
-5.5892086 -1.8348985 78.362083
19.910339 -1.3806205 78.275887
-2.1245651 -0.30468243 78.365891
-1.4298961 -0.24718833 78.338562
-0.64227563 -0.24685732 78.296875
0.039095759 -0.26006585 78.318512
1.6743832 -0.34038055 78.241745
-0.62432855 -0.18819037 78.345985
0.098381281 -0.15414947 78.394608
0.77033275 -0.19663395 78.386353
1.3267281 -0.094377838 78.274666
1.5373795 -0.16462938 78.307304
2.1042705 -0.12591934 78.343079
17.070053 0.47517598 78.260468
17.022482 0.76714718 78.224312
-6.002974 0.80605042 78.240677
-5.9949994 0.82088828 78.295364
-5.7038121 0.83043933 78.226891
-4.6308022 0.89679402 78.357239
-4.0545406 0.94270748 78.246399
-3.2013977 0.98376119 78.219688
17.101221 0.92891818 78.320633
-2.2462049 1.0352407 78.300278
-2.1661334 1.0896856 78.266029
-1.6743202 1.0828568 78.262703
-0.86621571 1.1124551 78.257942
-0.3744669 1.1400793 78.260422
1.826074 1.2873915 78.314713
15.763452 2.1512456 78.214195
16.165028 2.1688108 78.324158
16.937656 2.2159691 78.333862
18.503506 2.3097486 78.34845
-4.6676159 -1.7759721 78.431328
3.3317418 -1.2971423 78.486115
22.225574 -0.62867278 78.51107
-4.1252255 -0.48692647 78.497963
-2.1524222 -0.40188652 78.494965
17.606575 -0.43594766 78.535522
17.973091 -0.42355335 78.5224
-2.1434591 -0.34734142 78.500374
-1.4152566 -0.34913152 78.468765
-0.61603415 -0.25051469 78.527924
0.10127956 -0.25326055 78.548378
1.9139395 -0.25837573 78.433678
18.547117 -0.37140691 78.589973
-0.58256269 -0.19701806 78.456017
0.11360842 -0.16984987 78.529533
0.82388592 -0.11255816 78.478149
1.8943007 -0.17731845 78.478912
2.0606699 -0.13779578 78.429375
1.7092702 0.081922695 78.562149
4.6910148 0.033278704 78.521721
17.264591 0.46990871 78.441864
-6.0388241 0.82178032 78.439674
-4.4390144 0.91750252 78.591019
17.151184 0.99089825 78.462479
-2.4160361 1.0333674 78.423592
0.33146381 1.1839525 78.559731
0.51433659 1.2095079 78.511505
1.6969178 1.2932112 78.580185
2.9734797 1.3740609 78.516739
3.1024547 1.3637061 78.586937
3.204679 1.3643059 78.525887
4.368382 1.4582573 78.513969
4.7608452 1.4681541 78.575287
15.396629 2.1408305 78.492783
17.9317 2.2885649 78.479179
18.276197 2.2916019 78.535988
18.492668 2.3365455 78.580505
18.655113 2.318181 78.453239
18.821087 2.3281298 78.567085
-6.4540987 -1.8807065 78.779732
-6.2262907 -1.8771756 78.760063
-6.1815958 -1.8849511 78.796265
-5.1000991 -1.8042101 78.757889
-4.5409818 -1.7727886 78.796585
-4.3661432 -1.7579393 78.691986
-3.8552134 -1.7383339 78.764786
2.9513073 -1.3110535 78.757561
3.5051322 -1.281136 78.781693
3.8253226 -1.25367 78.617516
4.1535816 -1.2481027 78.640518
5.5286775 -1.1618025 78.722397
22.045769 -0.89995408 78.650253
16.02684 -0.52175772 78.79863
18.004425 -0.40552914 78.612267
18.911091 -0.36947191 78.724068
1.7122914 -0.18250555 78.659004
2.7290559 -0.093689337 78.781281
5.6394739 0.10174248 78.651711
-6.7071748 0.78481662 78.689499
-5.5196543 0.8543961 78.722504
-4.2052031 0.94013745 78.761444
3.0704083 1.3678521 78.68055
7.1339025 1.6113694 78.772522
7.7499018 1.6308436 78.758911
8.2175274 1.6797779 78.732704
26.627815 2.1619506 78.788239
17.160912 2.2127881 78.732727
18.306213 2.2898901 78.635239
26.627649 2.3434925 78.791527
23.173088 2.450377 78.685631
26.61734 2.5406592 78.792755
26.592587 2.7225361 78.797981
-5.2661781 -1.8196363 78.894859
-4.4135571 -1.7721792 78.85881
4.2188659 -1.2594911 78.974922
5.3159451 -1.1822393 78.953285
8.0480022 -1.0218493 78.853439
8.3108521 -1.0076381 78.876602
16.119272 -0.52590549 78.889595
17.32155 -0.4448812 78.859863
17.521652 -0.43167382 78.926109
18.385 -0.4008441 78.835152
2.0870838 -0.21353918 78.947479
2.2294557 -0.080803879 78.861542
2.7398045 -0.0067897178 78.906845
3.1747451 -0.038823813 78.828529
3.2420235 -0.080446064 78.888023
4.0722151 -0.029598847 78.895859
4.7365203 -0.026108071 78.881737
2.1030798 0.050265241 78.985443
3.236454 0.027450614 78.893089
5.3905025 0.0085687786 78.925789
7.8960209 0.16053933 78.803955
4.0448389 0.2355327 78.994553
7.9352732 0.24184448 78.857246
16.429461 0.39458761 78.950081
16.426357 0.54612064 78.958595
-6.5684614 0.77010655 78.909355
-6.3504348 0.79473442 78.851852
16.408052 0.70197636 78.916985
17.854546 0.69582653 78.926178
18.178804 0.70678967 78.970612
-4.2053976 0.92299581 78.874878
-4.1166925 0.95365268 78.855827
18.051348 0.91630375 78.964951
-2.2215233 1.0443711 78.872818
-1.9009228 1.0707339 78.855728
-1.4702005 1.0980849 78.91803
-1.2906899 1.1077034 78.868591
-1.1715899 1.0975963 78.930908
-0.91613853 1.1027215 78.989265
17.89806 1.0103455 78.996017
0.37621927 1.2003276 78.939766
1.1684688 1.2453563 78.851654
1.6170578 1.2847983 78.873726
2.1074462 1.3025134 78.964348
2.3125887 1.3237205 78.908447
2.5599699 1.3409998 78.944084
2.6669559 1.3482571 78.842499
2.8814459 1.3510472 78.976868
3.9795213 1.4251885 78.956833
4.3571906 1.4343156 78.953896
6.6572347 1.5748949 78.861115
7.1621976 1.6037257 78.855392
8.1976042 1.6768832 78.989609
8.2120247 1.6779583 78.885536
9.0860767 1.731521 78.904045
9.909935 1.7780341 78.984123
10.254335 1.8011043 78.902054
10.905874 1.8370388 78.952621
11.558796 1.8871675 78.932617
23.311325 1.8300341 78.849182
26.763939 1.976912 78.916008
15.066882 2.0864835 78.905312
15.353763 2.1100216 78.825172
23.303862 2.0180469 78.852867
16.408785 2.2002914 78.954918
16.689573 2.2609091 78.872513
17.862844 2.2628386 78.864769
18.511528 2.3234005 78.96405
18.721001 2.3168826 78.842293
23.541656 2.2897172 78.910683
26.714987 2.6993804 78.875771
-5.7256141 -1.8657894 79.195732
-4.5517874 -1.7768961 79.193802
-4.2055554 -1.7466438 79.006828
-4.1595473 -1.7440354 79.051765
4.1537046 -1.252553 79.022804
4.3373523 -1.2565196 79.082245
5.5050602 -1.1710975 79.081818
5.6866093 -1.1730556 79.114258
8.9176073 -0.96156555 79.108093
9.0564079 -0.9815889 79.109863
16.043936 -0.50872982 79.07399
16.430901 -0.49573445 79.092064
16.811218 -0.47174633 79.063148
17.30883 -0.45259899 79.093704
17.547501 -0.43582243 79.050316
18.367815 -0.41060555 79.023781
2.0977848 -0.15722114 79.130341
2.6882358 -0.061776143 79.161392
3.2410102 -0.058525801 79.114525
4.1379318 -0.04484652 79.117973
2.0495231 0.13959645 79.008766
2.7096829 0.075239733 79.025673
3.2508247 0.10830072 79.110146
4.0455403 0.19874558 79.081871
4.7784767 0.05196856 79.106636
5.4377775 0.1245707 79.100815
6.2747555 0.12506896 79.04921
7.4454026 0.17581746 79.183685
8.0287981 0.1857194 79.185188
4.0347233 0.24394146 79.046066
4.6713052 0.23196402 79.101357
5.3162384 0.30104345 79.131897
6.1335497 0.34747517 79.173996
6.6753821 0.37370443 79.191574
16.487772 0.38163328 79.133507
16.578094 0.45670128 79.178452
-6.7612228 0.77355778 79.127182
16.504612 0.77623904 79.105492
-4.9076872 0.90168172 79.058006
-4.6710367 0.89587486 79.119835
-4.4505692 0.91078532 79.001106
-3.5962772 0.96997607 79.122948
-3.3878348 0.9779442 79.196495
16.363426 0.93590349 79.104813
-2.603837 1.0285976 79.003647
-2.2568088 1.0535383 79.187973
-0.8891468 1.1362079 79.176483
17.903593 1.0845541 79.015594
1.5133439 1.2466193 79.136147
1.7271419 1.2807355 79.135719
2.5365496 1.3361717 79.0093
7.5427194 1.6292734 79.000404
8.0441275 1.6547455 79.002411
9.4500866 1.7397332 79.014763
9.9563789 1.7721124 79.123825
10.52274 1.8116007 79.04142
11.574841 1.8772221 79.071548
12.390032 1.9185454 79.008728
14.308244 2.0796564 79.117744
17.602066 2.2455869 79.190353
18.065821 2.2849207 79.045647
23.799877 2.6113276 79.169312
24.137686 2.6398144 79.028191
24.414696 2.6618619 79.102943
24.895935 2.7011073 79.125626
25.480112 2.7246978 79.152374
-7.4539795 -3.2025962 79.349731
-4.710011 -1.7928425 79.238983
-4.1655922 -1.753911 79.319496
2.9473906 -1.3298274 79.236336
3.8956828 -1.2733588 79.312683
5.8801765 -1.1603323 79.288338
7.5830021 -1.051123 79.255844
7.7108965 -1.0404236 79.306549
7.9733973 -1.0223055 79.385635
12.59342 -0.7495712 79.239815
12.947386 -0.72228771 79.231987
13.521873 -0.68797445 79.267067
16.149466 -0.50766188 79.361786
16.520393 -0.49242365 79.206253
17.937731 -0.42056823 79.371277
2.7016726 -0.20600133 79.295692
18.668503 -0.38966799 79.378036
2.1023934 -0.15288325 79.211617
2.6939139 -0.12650545 79.277664
3.2862859 -0.085103601 79.271675
4.7795749 -0.0068449676 79.297874
23.769833 -0.071438313 79.322975
3.3202529 0.031678349 79.230019
5.4488482 0.052561387 79.28952
6.1827841 0.088625789 79.389854
7.4153881 0.18812494 79.369911
8.0185041 0.19399618 79.280235
6.172966 0.28658655 79.287628
6.6614137 0.39133298 79.275238
8.0500011 0.25498506 79.265633
8.7128162 0.28246602 79.32235
9.6208229 0.28371304 79.322968
10.211851 0.32151932 79.36718
23.047523 0.28382015 79.228004
6.6675 0.4294174 79.208511
16.605211 0.59156322 79.365097
15.465423 0.66223174 79.395958
16.610582 0.68916786 79.282486
17.376665 0.71325696 79.242134
-5.5974126 0.85653561 79.304787
-0.87953418 1.1238335 79.237083
0.010912418 1.1760132 79.21019
1.2754997 1.2703295 79.33757
1.4405127 1.2663944 79.384735
5.8005762 1.5088736 79.266823
6.5482392 1.5657243 79.351036
7.3566957 1.6230874 79.3787
8.6988487 1.700048 79.366508
9.3732643 1.7417705 79.265694
9.7087669 1.7782407 79.343285
9.9520206 1.782913 79.338295
10.493273 1.8170743 79.377892
11.480206 1.863598 79.32383
12.042944 1.903904 79.370102
13.153398 1.9691279 79.3536
13.904067 2.0246265 79.372238
15.106462 2.0864391 79.389854
15.68807 2.1596942 79.361389
15.937712 2.1447506 79.352669
17.109369 2.2272558 79.342896
17.594833 2.2559152 79.202965
17.853106 2.2827888 79.242981
18.239351 2.2961702 79.203011
18.924736 2.3316002 79.30162
21.190128 2.4769523 79.396385
22.806374 2.5609207 79.234573
23.424423 2.6059077 79.278137
24.063431 2.6483395 79.379906
24.472828 2.6566682 79.295349
25.270885 2.6979556 79.33123
26.031223 2.7469335 79.291641
26.536295 2.7148235 79.305809
-6.128222 -1.8660648 79.465973
-4.2765923 -1.7642224 79.45015
3.1497884 -1.3147634 79.555794
4.3016424 -1.2457784 79.493279
4.4111028 -1.2315261 79.413818
4.7993536 -1.217231 79.517677
4.8842964 -1.2143271 79.502518
5.1541691 -1.1958634 79.502075
5.9408174 -1.1443331 79.4496
6.4223418 -1.1106918 79.57605
6.9384365 -1.0767071 79.528404
8.271307 -1.0079839 79.422707
9.1302252 -0.95071805 79.501465
12.719474 -0.74235696 79.594948
17.45443 -0.44370425 79.445518
17.78334 -0.43174571 79.555489
17.982077 -0.40194893 79.566826
18.086653 -0.41184735 79.578491
18.68346 -0.38997817 79.5131
18.845379 -0.36184382 79.417328
19.294846 -0.3452661 79.556915
6.1928635 0.16089548 79.407402
6.7893763 0.1444197 79.402321
7.3813701 0.2120427 79.499527
8.0581656 0.21564057 79.518089
8.6846809 0.29956812 79.502151
9.6179867 0.31893 79.573082
10.177341 0.38767239 79.458153
11.077211 0.35519451 79.469902
9.6357498 0.41089976 79.478096
10.183919 0.45419276 79.54142
11.041938 0.44387317 79.54805
11.716553 0.46271664 79.56678
14.188101 0.45800114 79.581955
14.200834 0.47538704 79.583244
14.865484 0.47144842 79.449081
15.443406 0.50537837 79.421638
16.613142 0.54693115 79.420891
14.829334 0.63975781 79.505363
16.898209 0.69438517 79.58194
17.46286 0.77053368 79.429451
-3.6427705 0.95981914 79.546623
15.440439 0.88917893 79.562759
17.547297 0.90525317 79.425453
-2.6231549 1.030252 79.491577
-1.9262438 1.0599468 79.504951
-1.3792424 1.0935627 79.411743
-1.0280168 1.0943793 79.545151
-0.71432459 1.138968 79.455444
0.24269685 1.199472 79.524529
1.2248964 1.2563152 79.548279
1.472775 1.2599107 79.507744
1.8267241 1.2960777 79.49073
2.4912543 1.3233342 79.528358
3.792417 1.4100977 79.463318
6.5586386 1.5770022 79.558128
8.7049389 1.7063322 79.506943
9.3193827 1.7399795 79.53772
9.4937868 1.7516518 79.505676
10.604296 1.7792846 79.439026
11.699375 1.9050459 79.412582
