# .PCD v0.7 - Point Cloud Data file format
VERSION 0.7
FIELDS x y z intensity
SIZE 4 4 4 4
TYPE F F F F
COUNT 1 1 1 1
WIDTH 1173
HEIGHT 1
VIEWPOINT 0 0 0 1 0 0 0
POINTS 1173
DATA ascii
0.17239352 -1.0010897 47.837498 17.065292
0.58666086 -0.99273396 47.833317 19.906342
1.0429667 -0.99453694 47.809235 21.486055
1.3807623 -0.99772328 47.805527 22.481361
1.8268031 -0.99626678 47.78503 12.915671
2.1909978 -0.99662417 47.822575 13.66272
2.5816679 -0.99717128 47.786953 14.658476
2.9432018 -0.99230886 47.805405 13.098746
3.3663003 -0.98129201 47.819656 13.983894
3.794524 -1.0353892 47.856171 20.601559
-27.109526 -0.44336772 47.682735 22.0805
-15.820254 -0.66613543 47.824242 22.028
-6.7391133 -0.51490951 47.864025 18.004999
-6.1931434 -0.68166965 47.786579 26.682417
-5.8582034 -0.65257376 47.886581 26.666666
3.8141296 -0.70753634 47.944218 27.0224
-0.19944264 -6.4971175 48.148842 45.05275
-2.1163306 -6.1331739 48.240635 34.000999
-1.3841655 -6.0361586 48.269772 38.004501
-1.1448835 -6.2027569 48.303371 42.002998
-0.3049559 -6.1136246 48.171341 46.053501
-0.2108964 -5.9282417 48.138023 50.55225
-0.30506945 -5.5447102 48.368309 41.051998
-5.6241045 -4.0748134 48.384953 37
-5.5445781 -4.1479111 48.26236 59.298645
3.1925254 -4.0395889 48.153835 47
3.3086481 -4.1476874 48.165848 42.714237
-27.041147 -3.7344048 48.247025 35.933334
-26.697369 -3.8346176 48.08786 36.0835
-25.463398 -3.8644323 48.13105 36.087502
-15.348484 -3.68379 48.216614 40.747036
-15.03889 -3.7467813 48.170967 43.454891
-14.632399 -3.7919302 48.165184 43.818481
-14.153147 -3.7844386 48.118488 45.3176
-13.772744 -3.7959869 48.210247 46.602867
-13.411496 -3.7605174 48.105133 45.768677
-12.966499 -3.8117535 48.216 50.148037
-12.639008 -3.7981544 48.178257 44.273739
-12.196122 -3.7229998 48.07375 44.79718
-11.793243 -3.7596319 48.0895 51.936691
-11.387259 -3.7122681 48.093964 45.273251
-10.930686 -3.6934612 48.052338 45.92963
-10.679029 -3.7640083 48.175087 43.767303
-10.131902 -3.7995977 48.142281 45.784252
-9.7985725 -3.806951 48.192207 48.033699
-9.3959694 -3.7902858 48.194439 46.770473
-9.0374184 -3.7997711 48.198318 45.820068
-8.6180744 -3.7971513 48.178963 46.298424
-8.1990271 -3.7931104 48.19709 45.635052
-7.8233752 -3.7919426 48.219147 48.9603
-7.4472194 -3.7934613 48.213177 45.642254
-6.9789348 -3.7039657 48.165642 48.96228
-6.7819538 -3.6285644 48.021873 36
-5.6214142 -3.7138033 48.193405 44.519821
-5.5291176 -3.8318725 48.205292 49.955418
-4.9839864 -3.7862053 48.166271 49.686279
-4.5764689 -3.783572 48.159725 52.497387
-4.2169728 -3.783982 48.193798 53.340805
-3.773716 -3.7851121 48.197002 50.501251
-3.3713906 -3.7844431 48.175373 49.984627
-3.0102115 -3.7769179 48.238953 51.374626
-2.5961277 -3.7865009 48.188148 47.981159
-2.2146637 -3.7919667 48.222706 51.848129
-1.7919422 -3.7841425 48.222572 49.088058
-1.3036999 -3.7798924 48.13493 49.072834
-0.94199455 -3.7889628 48.19717 50.961933
-0.57552046 -3.7854829 48.208199 50.431149
-0.1078815 -3.786875 48.20528 48.279598
0.33208174 -3.7822633 48.236198 46.881321
0.60162354 -3.783571 48.183918 47.318932
1.0417812 -3.7710357 48.155907 49.548923
1.3606504 -3.7748065 48.141163 49.472828
1.8157248 -3.7758796 48.192341 55.954906
2.1993151 -3.7704749 48.230133 53.149292
2.5933428 -3.7695632 48.200943 56.124496
3.0815408 -3.7822168 48.242523 52.669888
3.3055212 -3.7512121 48.182594 46.06374
-27.050041 -3.4516525 48.164879 34.633297
-15.395752 -3.4354737 48.147636 39.830418
-14.908472 -3.395247 48.051147 37.599998
-14.729277 -3.3396432 48.070477 36.375
-14.153597 -3.4197385 48.012512 37.857143
-13.742363 -3.3322892 48.027119 36.646069
-13.434754 -3.366358 48.045261 37.090816
-12.9283 -3.3707426 48.027443 39.697094
-12.514812 -3.3961012 48.034157 37.176056
-12.135386 -3.413301 48.047657 37.670372
-11.694915 -3.4324279 48.04034 41.418911
-11.393609 -3.3869078 48.03492 38.721786
-10.957444 -3.3882809 48.046356 40.904957
-10.769984 -3.3915226 48.070183 42.517857
-6.9535627 -3.3737845 48.186806 44.526539
-6.7782578 -3.3504267 48.089546 34.625
-5.628336 -3.3964865 48.181179 40.357605
-5.5751925 -3.4322193 48.203396 40.086285
-3.8738987 -3.5661004 48.240921 37
-2.1587956 -3.309058 48.138718 38.691917
-1.9729048 -3.5941527 48.051682 40
3.3334479 -3.3991444 48.201122 42.4958
-27.066925 -3.0759537 48.227062 33.305553
-15.670777 -3.0112529 48.037392 38
-15.412555 -2.9993558 48.173378 35.973732
-14.978902 -2.9521019 48.036587 35.375
-14.71937 -3.007149 48.050762 35.541664
-14.15007 -3.0148604 48.023251 36.333332
-13.816878 -2.9872553 48.034889 35.333332
-13.43333 -2.9678447 48.031349 35.453171
-12.913926 -2.9744406 48.020016 37.118179
-12.556952 -2.9696138 48.027351 35.598503
-12.183186 -3.017185 48.043262 37.239998
-11.684039 -2.9548388 48.027927 39.172241
-11.411216 -2.9640815 48.03307 36.984211
-10.959919 -2.9969208 48.052723 39.837166
-10.76281 -2.968941 48.070011 37.602734
-6.966846 -2.9975114 48.204029 46.232956
-6.7795095 -2.9747205 48.111183 32.25
-5.6325388 -2.9959276 48.172985 37.282028
-5.5679455 -2.9888799 48.267834 34.322918
-3.7585652 -3.1470928 48.323601 36
-2.2091391 -2.9254248 48.119202 37
-1.8131289 -2.9220333 48.106117 37
3.3361983 -2.9987257 48.21431 38.678215
-27.075329 -2.6276011 48.160263 31.6875
-16.111536 -2.6214359 48.001881 34
-15.777246 -2.5080218 48.012897 34
-15.408786 -2.6212673 48.128448 33.694252
-14.954992 -2.5690539 48.049923 33.91531
-14.697766 -2.549634 48.036251 33.873264
-14.145773 -2.5677876 48.035332 33.714909
-13.840728 -2.5397005 48.033436 33.009258
-13.407132 -2.5826111 48.037643 33.516846
-12.912743 -2.5901577 48.034111 34.544445
-12.592056 -2.5739162 48.030083 34.57003
-12.159425 -2.5985034 48.043331 35.518604
-11.66307 -2.576803 48.041775 35.93615
-11.409063 -2.5921841 48.042191 35.343208
-10.976845 -2.605536 48.060379 35.929859
-10.757362 -2.5902884 48.074028 36.573215
-8.2208853 -2.6170738 48.058849 60.893204
-6.9586592 -2.602628 48.206512 36.63673
-6.7605476 -2.5356064 48.104012 29.5
-5.6348958 -2.6010635 48.190758 33.740311
-5.5757837 -2.629565 48.261204 32.96154
-4.0652952 -2.7558279 48.381859 35.049999
-3.7590432 -2.7383182 48.269493 35
-2.2018867 -2.477272 48.181 35
-1.8141713 -2.5868096 48.226364 35.5
3.35218 -2.602751 48.210697 35.13868
3.6200209 -2.4515705 48.022377 32.079559
-27.075596 -2.1804805 48.170113 30.038462
-16.446659 -2.0666993 48.003208 31.333334
-16.092241 -2.1631601 48.020866 32.166668
-15.683018 -2.049871 48.016647 31.916668
-15.389408 -2.2000721 48.114574 30.453468
-14.976608 -2.1503232 48.048523 31.773146
-14.669452 -2.1645977 48.047333 31.058334
-14.146538 -2.176791 48.03756 30.915237
-13.823206 -2.1663687 48.033642 30.527435
-13.426458 -2.1966839 48.04213 30.899332
-12.921785 -2.1877861 48.043835 30.067955
-12.611395 -2.1829946 48.038681 30.461525
-12.192151 -2.2077487 48.047764 30.546986
-11.672546 -2.1626184 48.068501 29.419035
-11.396724 -2.1948934 48.043465 30.637667
-10.987014 -2.2097952 48.073711 31.162205
-10.761603 -2.1950765 48.06715 29.286209
-6.9642596 -2.1899843 48.233498 28.620426
-6.7575598 -2.1644416 48.114052 27.1
-5.6366811 -2.1958523 48.194771 30.661434
-5.5733371 -2.2120459 48.312443 28.953846
-2.1221368 -2.1587117 48.205833 33.666668
3.3669462 -2.1939857 48.201729 31.559937
3.6114531 -2.2429414 48.061771 31.75
-27.074574 -1.7886449 48.169048 29.233334
-17.870924 -1.7267762 48.000446 30
-17.245819 -1.8879919 48.024025 32
-16.864658 -1.7227666 48.000282 30
-16.481115 -1.7531891 48.017475 31.333334
-16.113914 -1.7969706 48.053608 31
-15.781111 -1.673933 48.023403 31.25
-15.391223 -1.7801747 48.103954 28.064314
-14.981741 -1.7620505 48.031422 28.686117
-14.669147 -1.7935171 48.042007 27.67091
-14.138842 -1.7898911 48.046242 28.056776
-13.801744 -1.7761153 48.038551 26.846096
-13.436526 -1.7896985 48.051804 27.359062
-12.917621 -1.782761 48.062347 26.144821
-12.636237 -1.796743 48.052601 27.064812
-12.179331 -1.8003663 48.059631 26.072947
-11.691661 -1.7721349 48.06675 23.776722
-11.423578 -1.7751535 48.063709 25.7859
-10.97981 -1.8017102 48.076752 25.703194
-10.756647 -1.814905 48.09457 27.85162
-10.187374 -1.6162741 48.035862 26.528439
-9.7986603 -1.625778 48.041634 26.832901
-9.5145788 -1.6171961 48.050278 25.263874
-9.0016928 -1.6188761 48.05579 20.219118
-8.6411057 -1.6216564 48.069729 21.47584
-8.1989441 -1.619617 48.078217 23.225595
-7.8754897 -1.6141663 48.080017 24.279091
-7.4553423 -1.6184546 48.064194 25.886595
-6.9660602 -1.784322 48.219513 21.278606
-6.7367616 -1.7779261 48.10854 24.666666
-5.6468081 -1.8072654 48.180489 27.017138
-5.5306625 -1.7225932 48.316555 25.092003
-4.975318 -1.6203127 48.347206 20.582035
-4.6072674 -1.617703 48.378624 23.018814
-4.2470484 -1.6042846 48.349075 21.768063
-3.7838492 -1.6110709 48.371445 23.819698
-3.396234 -1.6357346 48.348072 25.516125
-2.9498496 -1.6432303 48.363071 26.377188
-2.7220147 -1.6297753 48.38504 24.5
-2.1833148 -1.6164151 48.379997 21.25
-1.769762 -1.646094 48.347027 23.012375
-1.3910218 -1.6214927 48.382435 21.801899
-1.0639117 -1.6306574 48.390198 22.762625
-0.79594958 -1.665127 48.386642 26
-0.35709906 -1.6153522 48.379101 24.004501
0.19852564 -1.6469675 48.372475 26.500999
0.48714393 -1.6350515 48.380489 27
0.93027347 -1.6314727 48.394672 27
1.3364842 -1.6281717 48.382687 27
3.175631 -1.7976608 48.323254 33
3.3853781 -1.7961611 48.190693 27.548891
3.7365077 -1.7572803 48.039505 29.721584
-27.072123 -1.4153479 48.125523 27.222221
-19.078245 -1.456604 48.00325 29.5
-18.405882 -1.5331326 48.005661 31
-17.798923 -1.4990472 48.012146 30
-17.29464 -1.4998374 48.024162 30
-16.857977 -1.4992864 48.031525 30
-16.592785 -1.4999058 48.048698 30
-16.038591 -1.3932695 48.033951 28.666666
-15.784831 -1.3612874 48.153648 25.956558
-15.372855 -1.430878 48.116062 25.927277
-14.948336 -1.4385177 48.052994 27.369534
-14.649397 -1.3956655 48.055511 26.528069
-14.153955 -1.4390851 48.059761 26.407841
-13.82128 -1.449093 48.060188 26.831242
-13.404127 -1.4702095 48.069054 26.226486
-12.965597 -1.4556059 48.092091 25.866627
-12.606443 -1.4502283 48.082439 26.2614
-12.212899 -1.437953 48.080448 26.588428
-11.73152 -1.4364072 48.123993 22.765192
-11.413314 -1.4363428 48.102955 23.613365
-11.012361 -1.4263183 48.101604 24.202385
-10.630866 -1.4098146 48.082333 25.639835
-10.171936 -1.4143959 48.040005 27.242121
-9.8057842 -1.4207938 48.036289 26.998524
-9.3645439 -1.4040368 48.047291 25.573168
-8.9649286 -1.4473637 48.03891 26.922617
-8.5747061 -1.4430008 48.063648 25.905495
-8.1759863 -1.4214587 48.071041 24.538656
-7.8135819 -1.4422541 48.067841 26.327875
-7.3859735 -1.4286716 48.072021 27.42041
-6.9756064 -1.4267883 48.132011 19.340334
-6.7363205 -1.4017048 48.092285 23.666666
-5.6495981 -1.4352423 48.18359 22.52562
-5.4966025 -1.4743489 48.338219 23.923565
-5.0376902 -1.5151595 48.362171 24.829374
-4.5730271 -1.4940101 48.363987 24.090073
-4.3038168 -1.4471105 48.368484 21.99667
-3.8269892 -1.4583204 48.37418 27.34017
-3.3589861 -1.424237 48.373035 24.529799
-3.0356593 -1.4161913 48.378407 22.887812
-2.6121945 -1.4595376 48.382065 25.192625
-2.2044761 -1.4649338 48.374397 23.135521
-1.808759 -1.4294744 48.376324 23.475346
-1.3699818 -1.433226 48.367516 24.661905
-1.0133547 -1.3929672 48.378227 25.341669
-0.5992192 -1.4246331 48.380775 23.835823
-0.22673056 -1.480414 48.37392 24.1038
0.24451104 -1.4270709 48.371738 24.43
0.65895742 -1.4067992 48.378857 25.611113
1.0786951 -1.3863367 48.383568 24.952595
1.9583077 -1.4170084 48.39222 32
3.3883736 -1.3888352 48.192532 23.865654
3.6941092 -1.4374607 48.025036 22.122126
-27.078909 -1.1632484 48.176777 26.337999
-16.593136 -1.1187229 48.181835 21.9554
-16.070353 -1.1285784 48.099308 30.0445
-15.829803 -1.034968 48.077782 24.931591
-15.3971 -1.0202365 48.133102 20.940884
-14.982872 -1.0552028 48.090099 23.25
-14.614083 -1.0991359 48.077667 23.466667
-14.158792 -1.0809131 48.113747 21.637699
-13.845855 -1.0531026 48.079792 20.525743
-13.493292 -1.082787 48.083111 23.129889
-12.956773 -1.0886847 48.082718 21.431738
-12.585193 -1.1038523 48.084366 22.991047
-12.236264 -1.1079959 48.091431 24.460241
-11.725764 -1.0857004 48.060108 26.672373
-11.36197 -1.0798759 48.077602 26.252697
-10.957716 -1.1015434 48.128254 25.441967
-10.627906 -1.0824212 48.10807 23.270239
-10.184123 -1.0581282 48.108185 23.11824
-9.8188419 -1.057886 48.101788 24.750839
-9.3849649 -1.071646 48.094845 23.478291
-8.9807749 -1.0287439 48.090008 22.902107
-8.6059494 -1.0574304 48.09753 21.414618
-8.181612 -1.0775328 48.098347 22.430063
-7.7945828 -1.0738169 48.092693 24.075027
-7.3739142 -1.069136 48.115921 21.414217
-6.9912825 -1.0851843 48.115444 21.953472
-6.7679334 -1.0721829 48.099174 17.78125
-5.65307 -1.0981752 48.140354 16.988125
-5.4576321 -1.0768715 48.267502 16.808464
-4.9626689 -1.0465664 48.239208 17.053728
-4.5995164 -1.0560411 48.286228 17.928938
-4.242835 -1.0740651 48.313194 18.751219
-3.8080657 -1.051331 48.268597 17.145224
-3.4099734 -1.0506705 48.304558 19.547052
-3.0255947 -1.0603931 48.306068 18.188791
-2.5850737 -1.0597299 48.285072 16.166216
-2.2144935 -1.0360348 48.24321 18.599833
-1.8368587 -1.0469414 48.288418 21.461948
-1.4144191 -1.0383106 48.267559 20.849548
-0.9473573 -1.0499254 48.291897 22.491653
-0.56933028 -1.0268524 48.274776 21.195705
-0.20387319 -1.0102068 48.238396 20.253448
0.24806948 -1.0119954 48.236248 19.478739
0.61220074 -1.0267504 48.28207 20.598068
1.0482235 -1.0265867 48.250858 17.104774
1.4052558 -1.0206662 48.217266 17.236084
1.8160229 -1.0313723 48.22506 17.998676
2.2513707 -1.0070378 48.19067 13.834266
2.5811076 -1.0175897 48.226536 15.035767
3.0333028 -0.98970032 48.284069 12.741182
3.3947532 -1.0522695 48.192215 20.697441
3.665484 -1.0039625 48.067318 25.930542
-15.422705 -0.72894895 48.320248 15
-13.971455 -0.7775569 48.111134 20
-12.980255 -0.65107214 48.104633 20.0285
-10.564113 -0.79067558 48.040001 27
-9.28444 -0.61801714 48.094128 26.90909
-8.9846363 -0.64493382 48.085693 26.645901
-8.6818695 -0.67503792 48.089134 27.037037
-8.0811939 -0.6492542 48.109741 27.285715
-6.9195113 -0.68259442 48.189102 25.420399
-2.9956219 -0.63305485 48.387901 28.050501
-0.54582894 -0.5022763 48.397141 16.052999
3.1172733 -0.75555933 48.34491 30
3.435915 -0.69956559 48.170643 24.476875
-9.2758389 -0.37004662 48.112915 26
-9.0194387 -0.26679528 48.147236 26.166666
-7.7801828 -0.36933303 48.203125 27.053499
-6.0696878 -4.4196129 48.769745 36.333336
-5.7682953 -4.641675 48.701504 36.5
3.3542233 -4.5431232 48.793793 41.75
-9.5529804 -4.0625448 48.517685 39
-6.8862367 -4.1552339 48.606262 56.813503
-6.7571826 -4.1715674 48.726471 50.016003
-6.1275787 -4.1847868 48.777683 35.5
-5.7459283 -4.114953 48.628384 43.155502
-5.5515823 -4.1330242 48.495388 54.018894
3.1713123 -4.1019449 48.512619 37.5
3.2640393 -4.1439261 48.601261 42.37368
-27.029083 -3.7188284 48.645233 35.458332
-26.727802 -3.8844666 48.459038 37.082001
-15.393245 -3.7230673 48.591251 42.38644
-15.028134 -3.823683 48.567173 46.731506
-14.569533 -3.8407526 48.627399 47.988358
-14.198859 -3.8301048 48.600262 49.741772
-13.806986 -3.837106 48.569363 50.825436
-13.44402 -3.8264227 48.560108 51.484833
-13.052276 -3.8307571 48.557503 48.960495
-12.63974 -3.8293872 48.649456 53.591057
-12.255762 -3.8256831 48.616516 53.703949
-11.87876 -3.8353181 48.625271 45.170502
-11.3278 -3.8257341 48.65744 53.170666
-10.921501 -3.7474627 48.540398 46.560631
-10.659659 -3.7916329 48.602341 43.208607
-10.172915 -3.8154457 48.559093 46.977417
-9.7990465 -3.8261728 48.574219 45.842236
-9.397501 -3.8133912 48.573891 45.441494
-8.9846201 -3.8131163 48.58271 46.058338
-8.6198044 -3.819895 48.580082 49.263008
-8.1863766 -3.8140719 48.610909 47.702793
-7.7576752 -3.8160067 48.604565 47.504105
-7.4350677 -3.8137419 48.582184 48.008091
-6.874104 -3.7624116 48.619274 47.570312
-6.6996393 -3.7593095 48.745899 45.784492
-6.1157517 -3.723592 48.777023 37.02692
-5.7476101 -3.7829049 48.621368 44.151638
-5.4775577 -3.8414402 48.519447 46.685837
-5.0141816 -3.802141 48.605824 51.116074
-4.5998673 -3.8047602 48.611916 51.909397
-4.1978202 -3.8053672 48.610065 51.938259
-3.8087637 -3.7990997 48.59267 53.571426
-3.4260159 -3.8021026 48.583622 51.46368
-3.004792 -3.8037624 48.578941 48.652111
-2.645438 -3.8042355 48.631329 50.360989
-2.1901731 -3.8009012 48.59293 49.087265
-1.7563922 -3.8060708 48.622833 48.730476
-1.4086951 -3.8014846 48.588768 48.228851
-0.99722177 -3.7983689 48.568321 47.535751
-0.58055359 -3.8009279 48.64975 46.259251
-0.23237105 -3.8048573 48.648621 46.59502
0.24303907 -3.7995796 48.599426 46.054443
0.69153231 -3.7958724 48.666145 50.2491
1.0191561 -3.797076 48.600811 46.344944
1.4866192 -3.7909188 48.524345 55.072319
1.8750592 -3.7881877 48.596302 57.091541
2.2712381 -3.782594 48.578156 52.907158
2.6631947 -3.7872705 48.638218 55.377544
3.0522659 -3.7885118 48.632202 49.096119
3.2681034 -3.7679102 48.622387 44.764492
-27.068546 -3.3995509 48.588078 34.303703
-15.430365 -3.4156063 48.612648 39.484966
-10.804532 -3.4535804 48.438515 39.766251
-10.798295 -3.2997284 48.570847 36.515999
-9.6067734 -3.5074534 48.623905 35.5
-9.5107069 -3.3447304 48.554531 34.5
-9.1023417 -3.3264172 48.605785 34.5
-6.8958368 -3.4029059 48.540936 45.290188
-6.7026625 -3.3956947 48.727036 39.589596
-6.090415 -3.5928974 48.769241 31
-5.7432933 -3.404629 48.607113 41.264782
3.1746111 -3.3570735 48.496445 42.099998
3.268203 -3.4089136 48.618484 42.645435
-27.067327 -2.9953711 48.595867 32.833332
-15.444289 -3.0261087 48.629902 36.461536
-9.3486195 -2.9255757 48.655037 31.875
-9.1392384 -3.0043042 48.600403 32.400002
-6.9030337 -2.9984381 48.545696 45.237164
-6.7103438 -2.9779952 48.732838 41.414509
-5.748342 -3.0148203 48.63401 36.815971
-5.3825226 -2.8208137 48.630779 29.001999
-4.0698214 -3.1684422 48.474426 36.049999
-1.0605625 -2.8578713 48.584274 56.785168
3.1690371 -2.9438024 48.558647 33.7188
3.2725616 -3.0302215 48.628368 38.61937
-27.0721 -2.5889082 48.614223 31.560606
-15.447366 -2.6108022 48.632072 33.027843
-9.4131184 -2.55057 48.712547 29.461834
-9.1443405 -2.5566475 48.664082 29.5
-6.8910427 -2.5992215 48.587948 37.012238
-6.7174563 -2.6087029 48.718067 33.879917
-5.7315388 -2.6177998 48.628078 33.102295
-5.5776753 -2.4840252 48.462055 30.5
-1.0275891 -2.5815024 48.593224 42.776081
3.1691926 -2.568547 48.600731 31.1
3.2719491 -2.5847023 48.615299 34.180344
-27.076258 -2.1885943 48.600056 29.892857
-15.445901 -2.2142572 48.641472 30.114584
-10.780445 -2.1418352 48.794456 23.581501
-9.3408947 -2.2243278 48.771183 27.333334
-6.9074216 -2.1876311 48.57122 29.605993
-6.7301388 -2.1937888 48.74115 30.550343
-5.7301097 -2.2004173 48.633385 28.51195
-5.3912539 -2.0629034 48.638634 26.751999
-0.88726777 -2.3189552 48.698616 29.467743
3.1416843 -2.1468861 48.603558 27.5
3.2590663 -2.1939409 48.598118 30.817308
-27.081024 -1.7932341 48.564274 29.277779
-15.456659 -1.807399 48.651848 27.009253
-10.837258 -1.7030776 48.552135 25
-10.771699 -1.6067243 48.68877 23.5
-6.9037986 -1.7836386 48.59803 23.303679
-6.7359676 -1.786077 48.744034 27.76512
-5.7108097 -1.8153479 48.620571 25.33333
-5.5472751 -1.6254239 48.464874 24.252125
-5.0345354 -1.6200073 48.441608 22.504
-4.6649361 -1.6184167 48.437889 22.004
-4.2660637 -1.615726 48.435413 21.003
-3.8819981 -1.6265085 48.436775 21.007999
-3.3551319 -1.6223642 48.429523 22.020416
-2.942204 -1.6209408 48.429832 23.703449
-2.4361563 -1.6327956 48.41259 31
-2.1258557 -1.6473765 48.434898 26.509874
-1.7315401 -1.6337451 48.413219 27.000666
-1.3212643 -1.6083622 48.444901 24.411152
-0.9923597 -1.6305057 48.428883 24.470499
-0.55798835 -1.6144 48.443554 21.364851
-0.19127417 -1.6207558 48.46492 24.478546
0.20928171 -1.6179702 48.466747 24.521326
0.609501 -1.6089875 48.47541 23.888889
1.1282275 -1.6287405 48.498856 25.00075
1.4037218 -1.6089674 48.504639 28.700666
1.8913012 -1.610754 48.461178 27.503
2.308814 -1.6232684 48.492748 27.280251
2.7073135 -1.6096678 48.508514 27.707167
3.0970261 -1.7131252 48.552547 26.56209
3.2565708 -1.798507 48.600204 27.141071
-27.073629 -1.4623364 48.580135 27.541666
-15.843517 -1.357175 48.524971 23.0585
-15.419938 -1.4544417 48.6227 24.226274
-14.983407 -1.4252173 48.718018 26.569193
-14.146541 -1.5111172 48.534386 25.065001
-12.803827 -1.4960153 48.709923 23.063999
-12.669781 -1.4923164 48.591614 22.397583
-12.222509 -1.4952877 48.603825 11
-11.841139 -1.4764758 48.492859 13.865334
-11.386391 -1.4856799 48.598583 9.9921999
-10.963911 -1.4461825 48.545204 12.85225
-10.76645 -1.3816451 48.572792 22.965441
-6.8928585 -1.4268119 48.642071 21.679661
-6.7321863 -1.4808619 48.757965 26.876583
-5.7048759 -1.3947669 48.640892 20.420275
-5.5079136 -1.4225808 48.45507 21.357931
-5.040134 -1.42483 48.419918 23.592091
-4.5427303 -1.4459785 48.427128 19.467131
-4.2925296 -1.3953799 48.424049 22.889587
-3.7656009 -1.4089568 48.424541 27.813702
-3.3576944 -1.3871161 48.420631 27.499153
-3.0522676 -1.3880185 48.430717 23.942097
-2.5918612 -1.4204783 48.431736 26.399426
-2.2079463 -1.4453344 48.432308 26.446579
-1.8192321 -1.4131413 48.438229 24.763252
-1.3941591 -1.4239897 48.437862 27.948751
-0.98707426 -1.40628 48.448151 27.825825
-0.58358908 -1.4115038 48.453682 25.79496
-0.18835475 -1.4070795 48.475601 26.679998
0.19350101 -1.4426523 48.46759 27.817583
0.635508 -1.4173113 48.478874 26.520384
0.99983722 -1.4256387 48.470242 28.549919
1.4062539 -1.4211864 48.492653 27.940382
1.8604978 -1.4059944 48.501793 24.275244
2.2063167 -1.38351 48.490757 28.700541
2.6163046 -1.3795272 48.50309 29.522011
3.0775917 -1.3785692 48.505791 26.024046
3.2452059 -1.3923286 48.578587 23.446964
-27.088524 -1.0606534 48.535965 26.020874
-16.624197 -1.1782389 48.726452 26.0305
-16.220545 -1.1037203 48.731689 17.084
-15.773644 -1.0702655 48.497192 16.08375
-15.422883 -1.0247934 48.588799 16.73321
-13.800367 -1.0378258 48.414261 10.5
-12.307478 -1.0470741 48.741741 23.058001
-10.803591 -1.1425809 48.592987 21
-10.636528 -1.0617718 48.629925 18.464325
-10.252768 -1.0338776 48.626541 18.368889
-9.8260813 -1.0341327 48.591637 18.007549
-9.3783998 -1.0374117 48.667389 16.755465
-9.0009928 -1.0466166 48.645329 16.383814
-8.5551348 -1.0756848 48.621471 16.473108
-8.2293253 -1.0590017 48.611065 16.524693
-7.848135 -1.0486286 48.561302 15.911145
-7.4124599 -1.0497198 48.622807 16.007822
-6.9773927 -1.0974842 48.667938 19.22673
-6.6940732 -1.1196513 48.736313 28.333334
-5.700933 -1.1307026 48.648621 17.73387
-5.4255772 -1.0723557 48.539772 17.862091
-4.9895453 -1.0538926 48.541695 16.532232
-4.589839 -1.0645443 48.52874 15.804801
-4.2367868 -1.0741719 48.508881 17.598145
-3.8020222 -1.0593663 48.512802 17.727064
-3.3872507 -1.0673785 48.528435 17.897184
-3.0143111 -1.0911897 48.478951 20.158798
-2.6390595 -1.0775106 48.516598 20.523787
-2.1666288 -1.0725415 48.48407 19.634258
-1.816335 -1.0961118 48.479736 20.961933
-1.4021199 -1.0735611 48.495201 21.79097
-0.96563524 -1.0734047 48.482883 21.233051
-0.58274436 -1.0748481 48.463551 22.356344
-0.20273989 -1.078172 48.485947 22.810291
0.12860875 -1.0756948 48.490761 23.927382
0.60623503 -1.0869572 48.507183 24.000517
1.0055599 -1.0808284 48.499706 24.57589
1.3886548 -1.0830618 48.511982 25.110001
1.8245002 -1.0934691 48.497196 24.330215
2.1862645 -1.0751756 48.533852 23.368542
2.5932052 -1.0675236 48.516712 22.913357
3.0574882 -1.0734996 48.543018 22.842939
3.2542999 -1.0978063 48.578625 20.187222
-15.394817 -0.77356851 48.520462 14.534
-6.7726526 -0.79947686 48.749027 29
-5.5799546 -0.50600255 48.541637 1.5
-0.84562343 -0.43680334 48.504837 18
-0.57653654 -0.55622017 48.525291 18.507643
-0.31494287 -0.67795569 48.533188 20.138124
1.851223 -0.72846484 48.519989 20.031
3.1589856 -0.61625028 48.778183 18.6
3.2492278 -0.64366311 48.5172 26.702835
-0.47595894 -0.34354687 48.458504 26.05225
-0.30923659 -0.36830401 48.430466 25.0515
3.3989055 -4.8872776 48.995979 38.0005
-6.5389848 -4.5691786 48.939232 57.830502
-6.2821417 -4.4477301 48.946114 52.32143
3.5147357 -4.5888486 49.011345 40.02499
3.6828487 -4.5912986 49.119812 42.704998
-6.5819116 -4.1565557 48.860916 53.370499
-6.2234826 -4.1790085 48.896461 46.079994
-5.8975577 -4.1211691 48.829643 46.117195
3.1586218 -4.0523853 48.848469 61.087502
3.4241939 -4.216403 48.877644 38.236012
3.7252076 -4.217433 49.076168 39.600266
-27.029453 -3.7538247 49.059155 35.5
-15.416304 -3.723793 49.00864 42.163124
-15.023625 -3.8517656 49.004417 48.425198
-14.642852 -3.853492 49.024281 48.810314
-14.216488 -3.8486302 48.990513 48.183212
-13.838579 -3.8488662 48.998146 50.615288
-13.426451 -3.8417943 48.981434 54.965748
-12.967762 -3.8432751 48.943714 52.498138
-12.588004 -3.8425133 48.970581 55.790791
-12.151383 -3.8413618 49.020096 48.09584
-11.769176 -3.8489399 48.941067 46.512619
-11.375706 -3.8453844 49.086689 56.985146
-10.853991 -3.7315223 48.938225 46.496277
-10.694251 -3.7883918 48.955025 44.135193
-10.189265 -3.8411014 49.002678 48.099953
-9.8101168 -3.8376486 48.978092 47.333881
-9.4077101 -3.8360713 48.998203 48.042999
-9.0489225 -3.8335633 48.989422 47.135796
-8.6168032 -3.8350308 48.994011 45.721134
-8.2110386 -3.8337674 48.985088 45.607098
-7.8154807 -3.8240037 48.981949 47.592873
-7.4544315 -3.8351951 48.99033 47.739071
-7.0842381 -3.8254323 49.030029 45.265503
-6.5306177 -3.8210287 48.878746 46.142605
-6.1965804 -3.7933702 48.892277 43.543243
-5.9102602 -3.801527 48.842342 47.922771
-5.3713255 -3.816674 48.997471 52.058846
-4.9796963 -3.8210356 48.994602 51.295567
-4.5814681 -3.8235068 49.035042 53.607441
-4.2039304 -3.8245432 49.029858 52.919903
-3.7851985 -3.8181479 48.956646 50.97839
-3.4113481 -3.8217912 48.989845 51.936378
-3.0201437 -3.8220043 49.016857 49.206322
-2.5949492 -3.823442 49.019405 49.392582
-2.2078166 -3.8050334 48.99567 48.225269
-1.8007191 -3.8076632 49.009235 45.718269
-1.3976271 -3.8226128 49.009209 47.144192
-0.97457057 -3.8243845 48.949841 46.992344
-0.54021019 -3.8269012 49.020084 45.108864
-0.17563097 -3.8199937 48.979607 45.952888
0.29960728 -3.8191202 49.033955 45.468498
0.55892265 -3.8117623 49.026646 46.240898
1.015077 -3.8135169 48.984539 47.281929
1.3778863 -3.811095 49.062237 51.60762
1.8704156 -3.808023 48.989693 48.070831
2.2229562 -3.8042774 48.985062 55.6464
2.6335795 -3.8048038 49.068741 57.070446
2.9802632 -3.8061154 49.014503 53.442654
3.3863087 -3.7524519 48.937603 47.423882
3.7347081 -3.7428374 49.132072 42.56863
4.0260668 -3.6989899 49.195732 31
-27.032846 -3.3422089 49.091068 34.166664
-15.447716 -3.4481657 48.983006 38.647968
-10.834176 -3.4349992 48.929844 47.9375
-10.786941 -3.414499 48.922165 39.092308
-6.5259819 -3.3916721 48.854321 39.587822
-6.1959729 -3.4049513 48.879421 40.687531
-5.9485798 -3.3741181 48.834854 39.664093
-1.9441273 -3.3474631 49.065132 38
3.4394104 -3.4090328 48.966064 41.618492
3.7350523 -3.4081731 49.13274 38.942383
-27.062401 -2.8902016 49.034119 32.875
-15.455083 -3.0255361 48.993839 35.519432
-10.829059 -2.9968755 48.943344 41.525341
-10.765734 -3.0410576 48.920204 37.106674
-6.5473642 -3.013243 48.865639 40.725506
-6.1945915 -2.9771779 48.90023 36.103268
-5.9402113 -3.0017843 48.84071 37.112415
-2.1580374 -2.9878139 49.010815 36.583332
-1.8825226 -3.0054548 48.999249 36.666668
3.4051182 -2.9885118 48.952923 37.033726
3.7372019 -3.0075583 49.130653 35.671719
-27.052332 -2.5380511 49.086391 31.1
-15.446998 -2.6249952 48.998795 33.159477
-10.82937 -2.5883284 48.952152 36.042809
-10.767647 -2.610167 48.930614 37.479721
-6.8141999 -2.6367176 48.815742 29.5
-6.5487647 -2.5857313 48.884895 34.524696
-6.1857114 -2.6102426 48.91642 32.489269
-5.914988 -2.5926545 48.844345 32.015148
-2.2086978 -2.5043497 49.101494 34.666668
-1.906401 -2.4996858 49.079414 34.666668
3.3986652 -2.6022718 48.967751 33.665546
3.7301123 -2.5810881 49.146049 33.01923
-27.065777 -2.2081177 49.061127 30.4
-15.45276 -2.209362 49.015442 30.099483
-10.834604 -2.2057259 48.977959 31.068476
-10.769521 -2.201617 48.943939 27.975742
-6.8070717 -2.2101917 48.84729 27.5
-6.559721 -2.2019107 48.901306 29.395428
-6.1844702 -2.2079744 48.937611 28.848036
-5.9194417 -2.1779139 48.865463 28.625069
-2.0823495 -2.075551 49.089073 33
-1.8136749 -2.3130152 49.003471 34
3.1434653 -2.1353631 49.116913 27.0005
3.3887792 -2.2005594 48.968155 29.391741
3.7203827 -2.1606319 49.163548 30.406668
-27.066992 -1.7492639 48.962994 29.4375
-15.453982 -1.8136463 49.01405 27.513002
-10.836683 -1.8028716 48.995399 25.262096
-10.773902 -1.8155261 48.975376 23.825647
-6.8224254 -1.8898524 48.844955 26
-6.5832329 -1.813637 48.90139 24.727903
-6.1878419 -1.8086599 48.956974 25.327723
-5.9015121 -1.7737104 48.874527 24.255411
3.1898317 -1.6794121 48.858543 26
3.3683448 -1.8027396 48.949802 25.991327
3.658314 -1.8319885 49.131695 29.404764
-27.060934 -1.4256502 48.887493 27.5
-15.745075 -1.4953039 48.853683 21.09
-15.437538 -1.4228258 48.997196 23.98922
-15.082148 -1.3595476 48.843334 28.060499
-13.78307 -1.5210888 48.956829 17.081249
-13.329506 -1.5306714 49.042313 25.0485
-12.928131 -1.5305015 49.041195 21.940437
-12.506746 -1.5113194 48.909626 18.733999
-12.203075 -1.512339 48.96907 15.782499
-11.770762 -1.5166579 49.030872 13.209305
-11.373028 -1.5148942 48.980736 11.198667
-10.95276 -1.4997525 49.025986 14.747064
-10.770973 -1.4474971 48.96262 23.071995
-6.5856533 -1.3990866 48.92297 22.770041
-6.1870756 -1.3943871 48.981766 21.232454
-5.8880019 -1.4065546 48.885872 20.7005
3.0782766 -1.5382657 48.856949 26.101999
3.3933198 -1.3954189 48.999191 23.023823
3.6923358 -1.4626863 49.108364 26.4051
-27.07345 -1.1080266 48.969299 26.6
-15.432898 -1.0020362 48.995541 15.829368
-15.046001 -1.1351619 48.811188 27.5595
-10.814736 -1.0646205 48.906883 20.0285
-10.654147 -1.0743641 49.000755 17.921761
-10.243995 -1.0459287 48.965427 15.827376
-9.8192987 -1.0448091 48.974758 16.754812
-9.4178886 -1.0517862 48.985966 16.470079
-9.0206213 -1.0679218 48.997414 15.835629
-8.5982494 -1.0849564 48.989349 14.983235
-8.227499 -1.0792927 49.036385 15.895839
-7.7987556 -1.0672238 48.999119 14.299586
-7.3967485 -1.0715809 49.02829 14.934218
-6.9399314 -1.0569425 48.990288 14.180769
-6.6069198 -1.1033661 48.975857 20.312536
-6.2095165 -1.1001477 49.014156 20.22304
-5.8413124 -1.1012439 48.955006 17.03249
-5.3678989 -1.0587394 48.959812 13.063513
-5.0085583 -1.0627507 48.976315 13.182572
-4.5867791 -1.0583524 48.996193 12.52185
-4.1809978 -1.0562316 48.973316 11.923746
-3.7895322 -1.0581868 49.021633 12.285069
-3.4032722 -1.074964 49.030884 13.206659
-3.0235322 -1.0756145 49.078995 11.268466
-2.5865879 -1.0534375 49.029808 15.365423
-2.2003098 -1.0379246 48.93327 15.563342
-1.8147117 -1.0396842 48.998253 14.979171
-1.3988557 -1.0432878 49.008999 13.859827
-0.94964689 -1.0485562 49.009232 13.052973
-0.66997284 -1.0448622 48.978664 15.196103
-0.23520049 -1.0440419 49.01947 15.993449
0.21239749 -1.0410142 49.015133 14.286741
0.56589562 -1.0513055 49.023003 13.567625
0.96518981 -1.0485431 49.016567 16.081968
1.347428 -1.0672317 48.989456 17.845079
1.8050261 -1.0664884 48.992783 8.2648125
2.1865528 -1.0488327 48.989975 10.693584
2.6059203 -1.0411049 49.008442 10.46432
2.9789562 -1.0525038 49.045525 13.658222
3.388891 -1.0602793 49.023193 17.723372
3.8638945 -1.1005547 49.182892 23
-15.385211 -0.75657302 49.027546 11.666667
-6.0588126 -0.76220822 49.038456 17.009501
-5.8535557 -0.75244617 48.831322 21
-6.5340185 -0.3201232 49.091724 20.007
-5.8792944 -0.061142921 48.960945 19.0065
-15.499597 -6.1484098 49.436733 52.031502
3.7215796 -4.4282804 49.373486 43.722225
3.7798991 -4.1589079 49.387352 41.493271
-27.001032 -3.6708333 49.398762 34.833332
-15.41066 -3.7422965 49.410995 41.661022
-15.007647 -3.8709226 49.37616 47.793999
-14.577617 -3.8762531 49.407806 49.770309
-14.243108 -3.8637631 49.351826 51.135128
-13.757918 -3.8659716 49.432629 53.497143
-13.412105 -3.8635786 49.431271 49.357872
-13.03448 -3.8606098 49.364494 56.065083
-12.601155 -3.858696 49.336411 51.327179
-12.22786 -3.8524635 49.415932 50.902157
-11.853052 -3.8679657 49.388821 51.924133
-11.421084 -3.8619289 49.415619 55.366455
-10.871404 -3.791018 49.412861 49.539448
-10.634742 -3.8487563 49.360435 46.162533
-10.194918 -3.8618991 49.362549 48.104691
-9.8069334 -3.8589261 49.397415 46.801193
-9.3719978 -3.8572018 49.40955 46.112915
-8.9629641 -3.8553112 49.434135 48.489731
-8.5879936 -3.8566623 49.399914 47.134819
-8.2061081 -3.8498163 49.365337 48.144226
-7.7921143 -3.8518937 49.406116 47.764648
-7.403502 -3.8443215 49.379192 47.781025
-7.0292363 -3.8507969 49.438442 46.990852
-6.6194515 -3.8448234 49.413731 49.624489
-6.1693435 -3.8316805 49.397301 50.389248
-5.8024817 -3.8326182 49.353226 49.327709
-5.3976026 -3.8158727 49.424438 50.712605
-4.9499536 -3.8410685 49.399338 52.890675
-4.5786476 -3.8389516 49.392967 53.06469
-4.1873488 -3.8423946 49.428631 53.057365
-3.83197 -3.8421903 49.414768 52.556664
-3.4085486 -3.8393402 49.390369 52.130295
-3.0119328 -3.837394 49.366039 49.523251
-2.6155581 -3.8455722 49.416107 50.504368
-2.2488155 -3.8430345 49.447433 46.498623
-1.771858 -3.8445439 49.419296 47.40847
-1.4121975 -3.8404582 49.402409 46.31382
-0.97476745 -3.8374431 49.381477 47.606869
-0.59692192 -3.8403397 49.400021 47.830402
-0.26232889 -3.83638 49.349209 46.811806
0.21446736 -3.83425 49.393841 44.645176
0.61618418 -3.8362656 49.339245 52.351833
0.99845183 -3.8278804 49.349983 48.221798
1.4190723 -3.8226452 49.394913 56.958973
1.7623442 -3.8293691 49.435215 55.329414
2.192126 -3.8218446 49.404041 56.54969
2.5458641 -3.8190889 49.412647 54.125507
3.01314 -3.8256445 49.423912 51.194031
3.4148884 -3.8393655 49.341633 53.898651
3.7645998 -3.7646077 49.398994 46.714336
-27.035666 -3.349396 49.361713 34
-15.450808 -3.442838 49.398991 37.751595
-10.819934 -3.5067122 49.25634 39.333332
-10.688555 -3.2088881 49.592827 34.601002
-6.0833898 -3.3807497 49.268612 36
-5.8330622 -3.3836803 49.466866 36
-5.517282 -3.3924141 49.550472 36
3.4313602 -3.5139174 49.208477 33.000999
3.801676 -3.4043629 49.343525 41.534782
4.1291676 -3.5369303 49.344547 36
-27.037506 -2.8916535 49.366791 32.625
-15.453169 -3.0311201 49.398079 35.479565
-6.1126294 -3.0757747 49.551846 35
3.4265661 -3.0515788 49.227066 31.000999
3.7937553 -2.9982004 49.328041 36.986626
4.1276035 -3.0418198 49.399593 35
-27.04233 -2.5058835 49.429001 31.5
-15.454041 -2.6303439 49.402275 32.209045
-10.675162 -2.5974333 49.594627 30.101
-8.4145126 -2.6101625 49.57373 52.166668
-8.3882799 -2.7134256 49.536644 59.784225
-1.70915 -2.6020036 49.297119 35.051498
3.4163346 -2.5936325 49.253838 29.000999
3.7897608 -2.5984118 49.337978 33.49194
4.1206322 -2.4959903 49.441917 34
-27.053837 -2.1625016 49.362389 30.506702
-15.461494 -2.2448981 49.414906 29.887259
-10.80446 -2.3932102 49.470093 34.079498
-10.7983 -2.3037231 49.477837 30.079498
3.4885399 -2.0957658 49.252861 26.0005
3.7906737 -2.1749604 49.35363 29.478777
4.0847883 -2.0268207 49.33744 30
-27.04516 -1.7518222 49.359585 29.178572
-15.450098 -1.8052446 49.431889 27.197115
-10.82382 -1.669682 49.401741 24.5
3.486021 -1.6554171 49.375549 22.862007
3.7785132 -1.8169358 49.368626 25.899881
-27.053888 -1.3259852 49.30183 27.25
-15.452276 -1.4212112 49.371132 23.817217
-14.138318 -1.5569911 49.55611 25.064499
-13.877861 -1.5526108 49.493507 22.4694
-13.449811 -1.5358318 49.298752 21.817375
-13.131689 -1.5666263 49.504585 26.547251
-12.514635 -1.5432724 49.412498 20.535686
-12.196351 -1.5391834 49.429058 16.638752
-11.740197 -1.5411171 49.456024 12.966611
-11.361865 -1.5244306 49.427608 12.855815
-10.904621 -1.4489226 49.382904 16.003889
-10.765134 -1.403914 49.372021 22.104769
3.4131706 -1.41927 49.371845 20.891205
3.7222514 -1.3675419 49.375267 21.338152
-27.030466 -1.0264354 49.327923 24
-15.434341 -0.96911794 49.402412 16.006458
-11.675261 -1.0302322 49.460121 23.033501
-10.646461 -1.0780866 49.389153 13.991905
-10.24276 -1.0688514 49.416927 18.811863
-9.8097887 -1.0717468 49.424442 18.170658
-9.3573599 -1.0743024 49.407139 16.770199
-8.9991417 -1.0834508 49.346161 16.767958
-8.5017347 -1.1121984 49.415756 15.023251
-8.2075882 -1.0928787 49.390717 16.808578
-7.7906208 -1.0889187 49.433716 15.505534
-7.3922238 -1.0845149 49.415066 13.739964
-6.9809856 -1.0881379 49.409081 14.605012
-6.6176677 -1.0820664 49.369743 14.15575
-6.1615281 -1.088499 49.386433 14.76952
-5.7979841 -1.0820938 49.378029 15.319569
-5.4156618 -1.0817381 49.392704 14.414968
-4.9997706 -1.0796653 49.405556 12.54803
-4.6045856 -1.077624 49.331902 12.348353
-4.2173223 -1.0762225 49.414608 12.58709
-3.7762256 -1.0800966 49.413979 12.548697
-3.4031816 -1.082926 49.413063 14.881868
-2.9872785 -1.0841087 49.414371 15.427172
-2.6119292 -1.070577 49.396576 15.157815
-2.197396 -1.0632271 49.443462 16.311096
-1.7854542 -1.0634396 49.44038 16.140499
-1.3552039 -1.0598671 49.431522 17.901752
-0.96726304 -1.0623378 49.423355 15.516222
-0.65423942 -1.062207 49.425301 16.272125
-0.19877385 -1.0651535 49.447018 17.081181
0.11395931 -1.0593964 49.434799 16.499565
0.53614032 -1.0676762 49.446762 17.709433
1.0508608 -1.0602028 49.369404 18.868107
1.3594614 -1.0821987 49.409424 17.463228
1.758754 -1.0782492 49.403141 14.039693
2.2037477 -1.0654911 49.414242 15.252267
2.5690868 -1.0594963 49.398525 12.487279
2.9616306 -1.0572671 49.357666 13.594747
3.4238207 -1.0778869 49.431774 15.663372
3.7557328 -1.0942361 49.394493 21.707508
3.769767 -4.4382324 49.709 43.014332
3.7832663 -4.1958675 49.803532 40.995575
-15.405187 -3.7674582 49.801018 42.65168
-14.986628 -3.8784809 49.779377 49.483498
-14.579812 -3.8854361 49.796921 49.534847
-14.148021 -3.8826883 49.796612 50.62664
-13.82869 -3.8879204 49.838902 50.288063
-13.366962 -3.8800859 49.858765 52.034912
-13.023719 -3.876272 49.778805 50.569286
-12.63804 -3.8774419 49.782528 49.790245
-12.193177 -3.8808584 49.75391 48.794857
-11.841294 -3.8866057 49.749794 52.42881
-11.478381 -3.8794732 49.701935 56.310997
-10.823068 -3.7429953 49.765507 47.196926
-10.721012 -3.7926788 49.795788 43.263233
-10.218452 -3.8755016 49.830151 44.793911
-9.7828808 -3.8786383 49.834652 46.641644
-9.4398918 -3.8765595 49.776485 47.828499
-8.9657831 -3.8718824 49.777596 45.152809
-8.5796642 -3.8649096 49.78804 45.242874
-8.1762581 -3.8699558 49.810886 48.238861
-7.7833962 -3.8664975 49.802399 48.541954
-7.3857851 -3.8650231 49.846779 49.320683
-7.0277267 -3.8653469 49.833134 45.861633
-6.5900121 -3.8618009 49.797359 49.906223
-6.2430506 -3.8601832 49.78046 50.840797
-5.813808 -3.8570776 49.796925 52.80629
-5.3744102 -3.855701 49.776127 51.538757
-4.973598 -3.8542125 49.768169 53.84063
-4.5946994 -3.8593054 49.806866 53.544693
-4.1797495 -3.8515229 49.799587 54.592922
-3.8148501 -3.8598735 49.795177 52.229584
-3.3904533 -3.861587 49.821953 50.748299
-2.9995842 -3.8625743 49.813148 53.140022
-2.6249328 -3.8632991 49.781113 47.950203
-2.2129838 -3.8650246 49.793343 51.437477
-1.8184536 -3.8618474 49.797714 49.173435
-1.4251889 -3.8621147 49.796875 50.333057
-0.98669243 -3.8574438 49.831192 47.592022
-0.59872252 -3.8643501 49.849606 50.382168
-0.24722788 -3.8521526 49.803787 47.548233
0.22974798 -3.8592012 49.91177 48.161629
0.60807258 -3.8485258 49.82637 47.723362
1.0332128 -3.8496037 49.801792 49.759953
1.3638668 -3.8418543 49.786301 49.226345
1.7708244 -3.8335698 49.719677 53.645996
2.236177 -3.8380363 49.75885 55.05761
2.6183469 -3.8435688 49.806187 55.347305
2.9790292 -3.8381774 49.796986 54.241367
3.4365244 -3.8591647 49.78204 54.005344
3.7674167 -3.7756214 49.821976 46.481575
-27.038952 -3.3704135 49.701149 33
-15.438771 -3.4287374 49.820698 38.590214
-10.838401 -3.4052963 49.813766 43.00198
-10.765317 -3.4290822 49.797607 38.375
-4.0534039 -3.249537 49.848869 36
-3.7512665 -3.2529192 49.960751 36
3.7914193 -3.4011471 49.802959 41.236115
-27.061924 -2.9825463 49.745697 31.5
-15.444967 -3.0100856 49.827099 36.013477
-10.847021 -3.0390608 49.827068 44.029209
-10.765306 -2.9689052 49.807121 41.48867
-6.136343 -2.8236132 49.614658 35
-5.8298006 -2.9126892 49.677223 35
-5.5525641 -3.0817811 49.713268 35
-4.0537105 -2.8413811 49.793125 35
-3.748405 -2.8418221 49.872322 35
-1.2100399 -2.8708215 49.943939 56
-1.170768 -2.8854294 49.927116 56.349884
3.7948394 -3.0013251 49.798542 36.890057
-15.44637 -2.6029477 49.819454 32.89888
-10.837546 -2.6094742 49.847183 36.011986
-10.778347 -2.5855448 49.797791 34.849003
-6.1153522 -2.4636595 49.61805 34
-5.8583965 -2.6309404 49.655235 34.5
-5.5584846 -2.4701519 49.812275 34
-1.1237103 -2.6715896 49.809441 44.13129
3.7997777 -2.5889826 49.803463 33.424179
-15.446647 -2.2155631 49.813396 29.982883
-10.845572 -2.2221019 49.85577 30.241817
-10.776535 -2.1879864 49.845997 27.440443
-6.0860529 -2.1658287 49.648216 34
-5.8035817 -2.2054627 49.710808 34
-0.97455645 -2.3613575 49.825653 28.185135
3.7939584 -2.1813004 49.798763 29.485117
-15.618178 -1.9013107 49.647499 26
-15.452753 -1.8088976 49.827541 27.246096
-10.838733 -1.7887949 49.860497 24.039042
-10.770539 -1.83539 49.824783 23.170292
-6.0618358 -1.7636368 49.661358 33
-5.8316178 -1.7607237 49.720989 33
-5.5598102 -1.9175384 49.778412 33
3.1608396 -1.6634142 49.741043 25.101999
3.4240773 -1.6493895 49.819847 21.5278
3.7733364 -1.7983692 49.820419 24.512804
-27.049555 -1.4479659 49.643078 25.5
-15.710975 -1.4385146 49.778828 19.5865
-15.442949 -1.4433037 49.760063 23.389214
-14.137526 -1.5528977 49.605736 23.068001
-13.307912 -1.5604481 49.826061 23.730833
-13.042083 -1.5534148 49.823551 24.294561
-12.60291 -1.5591855 49.808689 20.422625
-12.188259 -1.5528656 49.815884 16.405367
-11.859522 -1.5394768 49.774403 15.492033
-11.347631 -1.5431957 49.751415 6.325397
-10.872128 -1.5080889 49.849304 18.829836
-10.781895 -1.4538664 49.811047 23.027264
3.1574535 -1.3656863 49.824257 23.55125
3.3981857 -1.4474198 49.800392 20.314013
3.7631543 -1.3011848 49.868408 21.786943
-15.444425 -1.0352361 49.747704 16.06535
-12.915309 -1.0704952 49.901291 24.033501
-12.164869 -1.082701 49.893711 20.059999
-10.82559 -1.0975089 49.738682 21.026876
-10.59409 -1.1023191 49.784615 19.38003
-10.188655 -1.0787054 49.749138 18.399149
-9.7781916 -1.0898054 49.813961 18.008368
-9.3298798 -1.0946726 49.776745 16.40431
-8.9864283 -1.1111993 49.761974 16.11718
-8.5654955 -1.1278437 49.821232 15.906077
-8.2078066 -1.1137297 49.804714 15.822235
-7.7832203 -1.1003469 49.803532 16.008135
-7.4204726 -1.0997417 49.788101 14.837337
-6.9884601 -1.1040024 49.806557 14.746772
-6.5894356 -1.1010759 49.766594 14.67176
-6.1613526 -1.1014699 49.845245 13.874267
-5.7923985 -1.0948153 49.761482 13.234987
-5.4258833 -1.0983006 49.801025 12.3214
-4.9695477 -1.0976174 49.78368 12.567016
-4.5997243 -1.0991225 49.827389 14.288371
-4.1653028 -1.0955228 49.814453 12.359868
-3.8051047 -1.0980934 49.775673 13.346251
-3.3847389 -1.1086749 49.79332 13.440573
-2.9855537 -1.1085461 49.812077 11.359061
-2.5474548 -1.0956404 49.798977 13.563639
-2.1853292 -1.0785128 49.79866 13.567506
-1.7860715 -1.0743662 49.783775 15.465744
-1.376667 -1.0695493 49.806347 13.575143
-0.98603773 -1.0695454 49.7855 16.221537
-0.66766721 -1.0747849 49.741486 15.985427
-0.2000872 -1.068903 49.793415 18.091057
0.18121789 -1.0773295 49.809593 17.323805
0.59997934 -1.0863115 49.821297 18.797192
1.0502181 -1.0908674 49.751598 14.316888
1.4073379 -1.1045119 49.814613 18.100901
1.7756971 -1.0982884 49.783688 11.531667
2.2277763 -1.0828899 49.794922 12.106119
2.6011949 -1.0975735 49.808002 11.152666
3.0181804 -1.0702651 49.822926 12.330345
3.4294446 -1.1001456 49.767105 14.072888
3.7529113 -1.0935179 49.829929 18.316069
3.1504841 -0.62856913 49.835732 20.55125
3.4123333 -0.6280719 49.836494 24.023499
3.6036339 -0.72794867 49.668938 29.047001
-15.440567 -6.0975552 50.216259 51.033001
3.7734494 -4.5156898 50.139881 41.264126
-10.756152 -4.3298836 50.046375 46.026501
3.7565451 -4.1876831 50.205528 42.897137
-15.425267 -3.7625215 50.199615 41.88509
-15.011049 -3.9012616 50.139492 47.605469
-14.579529 -3.9010861 50.203846 49.908497
-14.172566 -3.8992162 50.234806 50.571617
-13.780822 -3.8955321 50.242466 52.230785
-13.430318 -3.8982291 50.224052 50.506878
-13.027789 -3.9012096 50.228329 53.038528
-12.616863 -3.8975368 50.176201 49.32925
-12.181001 -3.9003329 50.222149 52.535698
-11.861584 -3.8997703 50.195396 49.677498
-11.434361 -3.8994348 50.121643 55.977497
-10.888808 -3.7896893 50.155674 47.326279
-10.649515 -3.8703811 50.174519 44.177631
-10.225556 -3.8990183 50.181896 47.980946
-9.8043852 -3.891917 50.225483 45.895794
-9.3988934 -3.8913827 50.137074 46.017475
-9.0060034 -3.8903148 50.157356 46.279495
-8.565155 -3.8886998 50.213478 47.587669
-8.2062273 -3.8921123 50.205086 48.355515
-7.7768292 -3.8866928 50.200104 48.456768
-7.3863573 -3.8832252 50.202984 47.519455
-6.9612236 -3.879498 50.202057 48.796867
-6.574717 -3.8822083 50.21545 50.482857
-6.2047906 -3.8767025 50.211338 51.284714
-5.804215 -3.872782 50.195827 52.00412
-5.383595 -3.8703711 50.152065 53.426888
-4.9760017 -3.874299 50.193684 54.102322
-4.5942297 -3.8753576 50.205666 54.268219
-4.193368 -3.8771574 50.189354 53.652348
-3.806953 -3.8765531 50.225418 52.1451
-3.3931158 -3.8802738 50.188423 52.688995
-3.0018337 -3.8724351 50.169411 48.4809
-2.5858047 -3.8791041 50.168118 51.221279
-2.1964574 -3.8832664 50.230812 49.814583
-1.8431138 -3.878427 50.241539 50.414871
-1.4369106 -3.877351 50.207043 46.481255
-1.0333592 -3.8784065 50.221432 45.865498
-0.57331234 -3.8734004 50.188427 48.166904
-0.21259353 -3.8738384 50.222263 48.55241
0.20204271 -3.8759036 50.178844 53.871624
0.6309002 -3.8669193 50.215656 54.021648
1.0237033 -3.8632901 50.160316 48.89278
1.4410921 -3.8654926 50.222343 53.003231
1.8626559 -3.8639765 50.216537 52.718769
2.1918418 -3.8640478 50.24754 51.758289
2.5817037 -3.8621027 50.21941 53.748417
3.003984 -3.8633392 50.181099 54.741421
3.4308414 -3.8752475 50.188152 52.924065
3.7574584 -3.7943287 50.202278 46.137466
-15.45746 -3.435636 50.203793 38.151947
-10.837614 -3.4926982 50.192966 38.806747
-10.339469 -3.4126694 50.228981 33.5
3.7899523 -3.4104068 50.201866 40.766521
-15.604618 -2.8827891 50.182133 32.5
-15.451299 -3.0090699 50.210968 35.589035
-10.457042 -2.9256995 50.239521 31.013
-10.190876 -3.002579 50.173557 31.375
-9.9192753 -3.0459921 50.394306 31.333334
-1.2107244 -2.954845 50.128494 63.008999
3.7932284 -3.0004127 50.213902 36.723492
-15.600426 -2.4626186 50.209454 29
-15.45316 -2.6158693 50.208626 32.974998
-10.4595 -2.633281 50.24675 29.513
-10.113968 -2.7005467 50.270519 29.674999
-9.8537378 -2.5320911 50.177746 28.833334
-8.4663715 -2.6755073 50.391651 56.179001
3.7955034 -2.5779517 50.222305 32.568661
-15.455581 -2.2044983 50.200249 29.994835
-10.8377 -2.3384092 50.058483 30
-10.252051 -2.3554823 50.23156 28
-9.7792587 -2.2623894 50.151691 27.504166
-9.5642843 -2.3122735 50.375595 27.5
3.7936082 -2.184418 50.195549 29.152082
-15.4574 -1.7946987 50.195465 27.163288
-10.821909 -1.7425852 50.207172 24.610188
3.4263477 -1.6612934 50.223022 21.824282
3.7823746 -1.811177 50.19482 25.033167
-15.445107 -1.4344091 50.183575 22.874016
-14.965336 -1.5598997 50.087166 27.061001
-14.634629 -1.5767227 50.2033 26.561501
-14.076695 -1.580552 50.267815 23.067499
-13.761889 -1.577631 50.145889 23.815062
-13.385422 -1.568396 50.048214 21.733833
-13.010143 -1.5712633 50.14526 22.474335
-12.595302 -1.5675503 50.127476 19.511665
-12.215551 -1.5745562 50.346054 20.314751
-11.762247 -1.5659058 50.168831 17.005585
-11.381874 -1.5679737 50.186806 14.280125
-10.877703 -1.5119488 50.238121 19.677935
-10.786124 -1.4336711 50.167889 23.060961
3.3942177 -1.4340851 50.194786 20.25021
3.765754 -1.3124372 50.283585 24.333334
-15.440833 -1.0754809 50.178577 17.432619
-12.317863 -1.1218306 50.123867 20.060499
-10.647505 -1.1132796 50.145679 18.100664
-10.222034 -1.0998013 50.164661 17.674271
-9.8052406 -1.1038009 50.173069 16.082987
-9.4386921 -1.1107283 50.149834 17.83646
-8.9716778 -1.1265997 50.211124 16.667055
-8.5567389 -1.1448997 50.198875 14.945271
-8.2299671 -1.132027 50.245949 16.332819
-7.7831683 -1.1207405 50.22847 16.940115
-7.3920102 -1.1067895 50.214363 15.583817
-6.9905877 -1.1069024 50.176952 15.769171
-6.5928011 -1.1040914 50.162373 13.855618
-6.1888599 -1.1154778 50.200291 14.011169
-5.7923732 -1.1049833 50.192852 12.809456
-5.4035573 -1.1036541 50.205868 12.953704
-4.9921536 -1.1032017 50.176395 12.688961
-4.5760031 -1.1105353 50.194557 11.37193
-4.1965518 -1.1139369 50.184937 13.380824
