# .PCD v0.7 - Point Cloud Data file format
VERSION 0.7
FIELDS x y z
SIZE 4 4 4
TYPE F F F
COUNT 1 1 1
WIDTH 1523
HEIGHT 1
VIEWPOINT 0 0 0 1 0 0 0
POINTS 1523
DATA ascii
-6.8340158 -5.7519722 83.898369
-6.7046461 -5.6545553 83.911583
-6.4693627 -5.7731614 83.945724
-6.3391929 -5.6850038 83.933083
-6.0759573 -5.6497049 83.837288
-10.879621 -5.4223804 83.900574
-7.8925567 -5.422164 83.988663
-7.3431282 -5.4096985 83.973671
-7.0220313 -5.4848814 83.856926
-6.8756371 -5.4646087 83.847595
-6.70328 -5.4903078 83.915016
-6.5213046 -5.4665933 83.927086
-6.2878351 -5.478354 83.90657
-6.1379805 -5.4466734 83.845688
-5.0267839 -5.4013004 83.888077
-15.754592 -5.323607 83.883034
-11.298666 -5.2595639 83.855766
-6.8396173 -5.289537 83.841637
-6.6905622 -5.3437862 83.889702
-6.442544 -5.2914362 83.91922
-6.2930317 -5.3057961 83.867561
-6.1468101 -5.3963308 83.834328
-1.9207003 -5.2944975 83.833466
2.5479014 -5.2548771 83.866997
2.6528268 -5.3182802 83.960373
-15.809019 -5.192822 83.820885
-15.728807 -5.0730286 83.867836
-11.271926 -5.1487226 83.911812
-6.8503332 -5.0926871 83.822083
-6.6778316 -5.1011372 83.889656
-6.4900703 -5.0922599 83.908096
-6.3109174 -5.1134119 83.87085
-6.1664038 -5.0801291 83.84642
-1.8868426 -5.1704936 83.850883
-1.7147188 -5.0827799 83.851303
-1.4429421 -5.0686488 83.817764
1.4348303 -5.0562615 83.899452
2.5120742 -5.0977874 83.894867
-15.673893 -4.8954287 83.829384
-6.8531437 -4.9287605 83.855042
-6.7026062 -4.9305525 83.89325
-6.4913983 -4.9084949 83.9049
-6.3029475 -4.8891978 83.884308
-6.1795626 -4.9248314 83.847702
-1.9656878 -4.9371567 83.804382
-1.6772161 -4.837709 83.803757
-1.4184175 -4.9411993 83.855103
1.3613782 -4.8971677 83.897087
1.4254996 -4.8954391 83.906097
2.4958122 -4.8950109 83.893288
2.6915245 -4.8808575 83.827164
-15.817373 -4.6480122 83.933823
-15.679365 -4.7153249 83.83493
-6.8841877 -4.6976223 83.833588
-6.710495 -4.6910424 83.901001
-6.511714 -4.7173519 83.924522
-6.2860065 -4.6806192 83.890274
-6.1373482 -4.7058945 83.839951
-2.1589105 -4.7134266 83.83194
-1.8040128 -4.7651544 83.811783
-1.4206514 -4.7507687 83.846924
1.3658378 -4.6877613 83.891991
1.4202679 -4.7264719 83.921356
2.4940042 -4.7097354 83.896645
2.6792691 -4.7780919 83.967262
-15.680847 -4.5051355 83.842781
-6.87292 -4.4704285 83.852859
-6.7242069 -4.5088639 83.906738
-6.5258884 -4.5299025 83.942841
-6.3006153 -4.4844108 83.893738
-6.1257691 -4.4754019 83.844284
-2.1138158 -4.5260816 83.931129
-1.4703131 -4.5088615 83.900154
1.3563912 -4.5033689 83.922234
1.4258215 -4.5185146 83.918686
2.4997561 -4.473444 83.895386
2.6430323 -4.4469509 83.889206
-15.880601 -4.2643809 83.864471
-15.782663 -4.3384295 83.89698
-7.0584502 -4.2487364 83.829498
-6.8807425 -4.3145337 83.845886
-6.7236004 -4.2615137 83.930283
-6.4872861 -4.3087435 83.946609
-6.2577186 -4.3057508 83.889839
-6.1448016 -4.2765861 83.834946
-2.0510392 -4.2834659 83.800262
-1.5469434 -4.3172727 83.817108
1.3541118 -4.3766799 83.899391
2.4700046 -4.3812022 83.884491
2.6568835 -4.394875 83.858665
-15.786667 -4.1507168 83.943214
-7.08529 -4.0335507 83.810425
-6.8548932 -4.1075425 83.878288
-6.7367525 -4.0706968 83.930832
-6.4972777 -4.0954299 83.957527
-6.2546477 -4.1041217 83.910675
-6.1304693 -4.0747738 83.851395
2.6534016 -4.0592918 83.878517
-15.771254 -3.9792485 83.971863
-7.0726824 -3.8178203 83.835396
-6.878408 -3.8889303 83.891487
-6.7321601 -3.8991699 83.944702
-6.5141726 -3.9144857 83.956161
-6.3014145 -3.8940837 83.949135
-6.1159453 -3.8864868 83.870247
-15.808975 -3.7202325 83.839027
-15.772278 -3.7684643 83.992935
-7.0682344 -3.6299429 83.845383
-6.8906555 -3.6559467 83.873642
-6.7013669 -3.7267439 83.956261
-6.5107303 -3.6860166 83.967171
-6.3009272 -3.7110293 83.936279
-6.1281233 -3.7068629 83.858009
-5.9987092 -3.6513064 83.820343
2.6675134 -3.7753792 83.953087
-15.817753 -3.5433731 83.896759
-15.788936 -3.5082181 83.942619
-6.8810811 -3.4816437 83.888191
-6.7345366 -3.483202 83.972153
-6.5032926 -3.4960482 83.976936
-6.299931 -3.4985619 83.946709
-6.1094227 -3.4969182 83.859535
2.618655 -3.5573807 83.896118
-15.821972 -3.3388195 83.873856
-7.0331411 -3.243516 83.901421
-6.9027109 -3.2907677 83.888237
-6.734251 -3.2900655 83.964767
-6.4918747 -3.3290348 83.981804
-6.2667155 -3.2875936 83.923058
-6.1043954 -3.3087947 83.867226
2.6547968 -3.2864449 83.979279
-15.828899 -3.0040395 83.87883
-15.794492 -3.1012731 83.933121
-7.05865 -3.0727422 83.848328
-6.8814316 -3.1176813 83.910194
-6.7558675 -3.1251593 83.982498
-6.4812827 -3.1014709 83.965599
-6.3204937 -3.0998282 83.960098
-6.0945897 -3.0807345 83.883972
-5.9715452 -3.0602317 83.809448
2.6587393 -3.1208982 83.849052
-15.82002 -2.9266438 83.899384
-15.777031 -2.9111717 83.859314
-7.0278611 -2.8862133 83.838303
-6.8974805 -2.8933446 83.91729
-6.7754345 -2.9888644 83.99762
-6.2910261 -2.8979766 83.975151
-6.0980239 -2.9330509 83.883369
-5.9524684 -2.9153666 83.918022
-5.7738352 -2.8473368 83.976158
2.6276958 -2.8910692 83.980812
-15.802091 -2.6721203 83.971352
-15.739489 -2.638504 83.917114
-7.0218859 -2.6965756 83.890442
-6.9118614 -2.7239063 83.920891
-6.7667456 -2.7484045 83.958977
-6.093864 -2.7753925 83.905136
-5.9852257 -2.6496847 83.842552
2.6457021 -2.7205575 83.928284
-15.800535 -2.5315247 83.902939
-15.758082 -2.4921215 83.868889
-7.0160675 -2.5966215 83.928291
2.6368237 -2.5710702 83.92762
-15.853942 -2.3914566 83.932724
-15.777329 -2.3240128 83.852753
2.6192715 -2.3742061 83.846786
-15.726018 -2.1614089 83.962616
-15.773757 -5.4249916 84.102127
-11.286068 -5.4300299 84.025169
-10.959391 -5.4529986 84.17662
-7.6320481 -5.4306107 84.078964
-7.5126171 -5.4259176 84.149773
-7.0797348 -5.4238825 84.118179
-6.5209255 -5.4136491 84.037041
-5.7670002 -5.4151716 84.111107
-5.044652 -5.4091902 84.189537
-15.749395 -5.2032685 84.002144
-11.25952 -5.2599249 84.089714
2.5262294 -5.3554311 84.053535
2.6717751 -5.2954292 84.061852
-15.804173 -5.0477514 84.148262
-15.772176 -5.0113473 84.142509
-11.236979 -5.1357517 84.181595
2.6343188 -5.0866737 84.085434
-15.859728 -4.9557238 84.066147
-15.754633 -4.9750395 84.167877
1.4413803 -4.8215113 84.03373
2.5260184 -4.8069634 84.038361
2.6632001 -4.9235148 84.107323
-15.737208 -4.7820878 84.1996
1.3325236 -4.6147079 84.002823
1.4504554 -4.6374354 84.025703
2.5318811 -4.6395683 84.034386
2.6729174 -4.6414471 84.00824
-15.818497 -4.5372877 84.164253
-11.273933 -4.5740166 84.175835
1.4362333 -4.4517636 84.039818
2.5290451 -4.4538689 84.028709
2.6623762 -4.5475159 84.086487
-15.785753 -4.2050219 84.087433
-11.230433 -4.3206315 84.08342
2.6776941 -4.2842336 84.126686
-15.825529 -4.1664028 84.004234
-15.753727 -4.1462255 84.025383
-6.5600586 -4.0809031 84.011154
2.6817274 -4.1059427 84.174667
-6.6388121 -3.8252561 84.014999
-6.5323267 -3.8878005 84.010788
2.6787281 -3.91541 84.159836
-15.851116 -3.7804885 84.025223
-6.6115937 -3.700907 84.001549
-6.4889183 -3.6849964 84.025116
2.7126002 -3.6479645 84.066513
-15.804383 -3.4653993 84.17717
-15.762731 -3.5326068 84.007614
-6.6416445 -3.4615374 84.00235
-6.5254445 -3.5205529 84.017899
-6.3818822 -3.4208527 84.034225
2.7335911 -3.4646492 84.104095
-15.805297 -3.3862987 84.126022
-15.785789 -3.2166314 84.026146
-6.6509013 -3.2515507 84.00251
-6.5201559 -3.311131 84.027069
-6.2508278 -3.2438102 84.019691
2.6608958 -3.3172729 84.145317
-15.850571 -3.0759516 84.075706
-15.7815 -3.0929937 84.069412
-6.7459502 -3.1160147 84.019112
-6.4889655 -3.0984278 84.028252
-5.9900584 -3.0738623 84.141006
-5.7813163 -3.0370462 84.062088
2.6663847 -3.048708 84.064232
-15.799406 -2.9266701 84.073784
-6.6768765 -2.8961761 84.031693
-6.4941826 -2.9437184 84.031006
-6.0019302 -2.9071698 84.084351
-5.8451958 -2.88678 84.060944
-5.7900248 -2.8752699 84.061226
2.6054499 -2.9725497 84.078712
-15.813412 -2.6604567 84.125687
-15.714768 -2.6427195 84.113892
-6.84758 -2.6995244 84.020058
-6.6978626 -2.720515 84.022377
-6.5633483 -2.765744 84.035118
-6.0049419 -2.7981658 84.055878
-5.808989 -2.783576 84.131821
-5.7849121 -2.7657781 84.050003
-5.4892154 -2.6418512 84.15303
2.5816567 -2.6156783 84.109848
2.6173775 -2.6218748 84.086304
-15.811316 -2.5002654 84.071838
2.5680213 -2.5728598 84.162476
2.6125956 -2.5712125 84.071808
-11.246202 -5.4637442 84.279366
-7.6083665 -5.4501662 84.257568
-6.360446 -5.4304056 84.289688
-6.0605574 -5.4426579 84.280457
-15.78175 -5.2840166 84.279205
-11.254781 -5.3018074 84.217094
2.5715129 -5.3533745 84.254677
-15.819633 -5.1290436 84.27211
-11.29434 -5.1520433 84.224625
-15.832888 -4.9331627 84.282417
2.637949 -4.8557639 84.293823
-15.831223 -4.6845951 84.257149
2.6785164 -4.6744757 84.286354
-15.814327 -4.5296559 84.249268
-15.758595 -4.5189714 84.293945
-11.307276 -4.4577513 84.260124
-15.822364 -4.3330374 84.26725
2.6529942 -4.2874861 84.318649
-15.836178 -4.1766696 84.279297
2.653616 -4.0672178 84.345215
-15.844929 -3.9383776 84.267586
-15.797054 -3.9627826 84.300934
2.6465981 -3.8868415 84.272316
-15.837732 -3.7422056 84.333466
-15.7932 -3.7381053 84.278793
2.6454096 -3.7437465 84.370155
-15.899656 -3.4782379 84.314499
-15.774643 -3.4880431 84.303185
2.6493771 -3.5098763 84.287109
-15.77686 -3.2533174 84.34211
2.5602179 -3.2905078 84.306641
2.6583881 -3.2921069 84.321053
-15.772022 -3.199717 84.273384
-5.8901968 -3.0578885 84.320602
-5.7884936 -3.0559118 84.293938
2.5535851 -3.0381098 84.323448
2.7058895 -3.0862885 84.296326
-15.826471 -2.8721075 84.376297
-5.8898492 -2.8769956 84.287575
-5.7854762 -2.8961153 84.336563
2.5441175 -2.8681679 84.324982
2.6923873 -2.8877504 84.3022
-15.697083 -2.6439667 84.209091
-6.0160236 -2.7820282 84.232056
-5.8580351 -2.7855835 84.399384
-5.7871833 -2.7882977 84.254173
-5.5793581 -2.6521459 84.2267
2.5622382 -2.6952577 84.295158
2.6941395 -2.6527851 84.297455
2.5755644 -2.5527077 84.24202
2.6047506 -2.5486674 84.344879
2.5776451 -2.2740099 84.20182
2.6056981 -2.3719633 84.359138
-11.19507 -5.466764 84.443138
-7.6305838 -5.4277439 84.558197
-6.8020887 -5.4459629 84.520149
-5.9758053 -5.423686 84.499031
-5.7754197 -5.4388218 84.512611
-5.244894 -5.4393768 84.594215
-11.246271 -5.2012639 84.418861
2.6576626 -5.3036981 84.55323
-15.78376 -5.1377702 84.529503
2.6650441 -5.1305571 84.405334
2.6339374 -4.8689203 84.441467
2.5953166 -4.4411564 84.454056
-15.781933 -4.3479509 84.513756
-15.954575 -3.9592392 84.493027
2.6707773 -3.8473544 84.485382
-15.944529 -3.7165425 84.509117
-15.778702 -3.70048 84.565765
2.648818 -3.6758988 84.439331
-15.783289 -3.5269778 84.467697
2.6756682 -3.4936399 84.466385
-15.78624 -3.3355107 84.499146
2.6718185 -3.2880201 84.462326
-15.775448 -3.0958259 84.44413
-6.0084934 -3.0503337 84.503967
-5.9001985 -3.0517681 84.466476
-5.7870989 -3.0345654 84.498444
2.6427491 -3.0727508 84.531212
-15.835656 -2.8756549 84.563522
-15.764357 -2.9499707 84.576111
-6.050458 -2.8115597 84.508415
-5.8774643 -2.8953798 84.548576
-5.7893739 -2.8445587 84.495697
2.6925888 -2.921159 84.468277
-15.993633 -2.7066236 84.478432
-15.715825 -2.659039 84.494965
-6.6019917 -2.6466827 84.40625
-6.0236316 -2.7971168 84.492081
-5.7968884 -2.7960999 84.403183
2.6868076 -2.7147212 84.512985
-15.833671 -2.4865518 84.580193
2.5506573 -2.5988126 84.57093
2.6088538 -2.5635066 84.560654
2.5902128 -2.3033485 84.454552
2.6167169 -2.3613172 84.507034
-2.3127589 -5.8112812 84.754097
-2.423538 -5.7550497 84.789017
-11.280552 -5.4298172 84.723541
-6.3569498 -5.4501076 84.733818
-5.2951818 -5.4400601 84.622055
2.5594289 -5.4075327 84.746918
-15.784738 -5.2920756 84.667076
-11.234952 -5.2802215 84.711151
2.545589 -5.3918333 84.701042
2.6716537 -5.3613524 84.7108
-15.814666 -5.1128249 84.766365
-15.769005 -5.1563678 84.711395
-11.261403 -5.0787053 84.750298
-11.278148 -4.8948684 84.746346
-15.796595 -4.65905 84.648964
-11.225178 -4.7052441 84.742561
2.6208532 -4.7428412 84.728012
-11.173818 -4.440063 84.78772
2.6296959 -4.521574 84.613861
-3.2783408 -4.3717985 84.611191
-3.1806078 -4.2063313 84.675285
2.6577168 -4.2638373 84.638824
-15.77766 -4.0482879 84.618668
-3.1729419 -4.1395707 84.662552
2.6905096 -4.1131797 84.747681
-3.0884316 -3.9523506 84.783951
2.6624451 -3.9075084 84.671959
-15.787039 -3.7085953 84.608627
2.6574545 -3.7632978 84.796394
-15.801083 -3.5688753 84.723137
-15.784145 -3.4788909 84.768951
2.6497915 -3.5000255 84.674919
-15.768768 -3.2265956 84.757339
2.6419344 -3.3151474 84.710365
-15.749624 -3.0356698 84.713593
-5.8139057 -3.0366631 84.610329
-5.7774601 -3.0698578 84.699593
2.6619778 -3.1173675 84.715607
-15.738292 -2.9342077 84.741158
-6.018496 -2.8620968 84.721046
-5.9274521 -2.8736846 84.695312
-5.792058 -2.8093352 84.733269
2.6149926 -2.9442461 84.706078
-15.772385 -2.7416191 84.73716
2.5819786 -2.6188688 84.675537
2.6417453 -2.6320302 84.71328
2.5812569 -2.5867524 84.688461
2.6179447 -2.5604339 84.621078
-2.0478637 -6.0450726 84.935013
2.6105931 -5.8081293 84.899002
-2.2772293 -5.6559772 84.827118
2.627372 -5.6149888 84.911201
-15.787897 -5.4115944 84.826324
-11.27933 -5.4394755 84.825531
-7.7252436 -5.4459534 84.827744
-6.7159581 -5.4433112 84.910995
-6.3004351 -5.4503393 84.871208
-6.0692973 -5.4507494 84.90535
-5.8799839 -5.4385986 84.805977
-5.7598619 -5.4520936 84.936157
-5.2784462 -5.450521 84.941437
-5.0646992 -5.4453263 84.888428
-2.410357 -5.4277444 84.949104
-2.3165495 -5.455224 84.879807
-2.1883693 -5.4925151 84.851234
-1.9484138 -5.4262505 84.923439
2.5916922 -5.406508 84.866486
-11.28718 -5.3451009 84.866722
-2.4317389 -5.2376862 84.950134
-2.3015335 -5.2846122 84.917274
2.554291 -5.3850999 84.985672
2.6772377 -5.2850718 84.922333
-11.274359 -5.1360502 84.940094
-2.4147482 -5.111711 84.879906
-2.319391 -5.0889754 84.930489
-2.1741886 -5.1109819 84.83326
-1.4268794 -5.1951232 84.981247
2.6621981 -5.0807066 84.995216
-15.789423 -4.9208841 84.971642
-11.263661 -4.8994174 84.861244
-2.431915 -4.9726534 84.931519
-2.2911091 -4.9055619 84.8974
-2.1212049 -4.9901047 84.95063
2.670433 -4.8875842 84.930603
-15.769767 -4.7407446 84.989594
-11.292319 -4.6386971 84.887032
-2.3350348 -4.6875286 84.942337
-2.1376345 -4.7420397 84.9478
2.6832194 -4.6974216 84.895279
-11.275631 -4.4923782 84.816307
-2.4284365 -4.5122724 84.944794
-2.3254595 -4.5218573 84.930237
-1.2999506 -4.4861541 84.983505
-15.789314 -4.3837094 84.911629
-3.2717919 -4.2718606 84.910187
-2.4324701 -4.297905 84.965775
-2.3614981 -4.2854939 84.935127
2.6577246 -4.3330898 84.929695
-3.2415695 -4.1584616 84.921021
-2.4067006 -4.1736746 84.901939
-2.3268676 -4.1742702 84.927124
2.6679134 -4.1812773 84.805405
-15.804245 -3.9058404 84.930656
-15.760045 -3.8665841 84.929024
-3.0642037 -3.9274352 84.807922
2.6503661 -3.8735447 84.943436
-15.798461 -3.7341194 84.9375
2.6524384 -3.4504428 84.869675
2.6864471 -3.3223944 84.972229
-15.776663 -3.0715265 84.843987
-6.0215597 -3.0396323 84.821388
-5.9136391 -3.0591202 84.895126
-5.7916679 -3.076952 84.917191
2.6893797 -3.147167 84.92083
-15.910049 -2.9916101 84.964905
-15.759894 -2.908684 84.84845
-6.0361176 -2.8720684 84.910751
-5.8260312 -2.8678296 84.888016
-5.7826867 -2.8288574 84.867508
2.6505728 -2.9198647 84.972641
-15.811061 -2.772336 84.867149
-15.7246 -2.6854391 84.895447
2.4161096 -2.6287117 84.892471
2.6661811 -2.6598096 84.854538
-15.742487 -2.5486863 84.977737
2.5292399 -2.5863893 84.973915
2.6530299 -2.5088148 84.89624
-11.489594 -5.4581313 85.111366
-6.7119012 -5.4400692 85.021744
-5.15555 -5.4572558 85.066757
-2.3319278 -5.4541488 85.089867
2.6170523 -5.5044308 85.082291
-15.774042 -5.2017345 85.172806
-11.264915 -5.3082938 85.121185
-2.2064714 -5.2401538 85.125862
-2.1620579 -5.2905378 85.112473
-1.7642972 -5.2613339 85.030807
2.6545472 -5.3660421 85.114388
-15.766531 -5.1446047 85.017403
-11.303971 -5.0184264 85.082405
-2.2001872 -5.0542355 85.198441
-2.1462657 -5.047421 85.088142
-1.9093301 -5.1769433 85.076653
-1.6354903 -5.082408 85.072372
-2.1588972 -4.914062 85.084106
-1.9559546 -4.8689899 85.081482
-1.6706305 -4.8745351 85.083817
-15.786363 -4.7014742 85.020027
-2.335803 -4.7726798 85.002563
-2.0888627 -4.6992507 85.123398
-1.887174 -4.6820321 85.084671
-1.6738044 -4.6906991 85.09919
2.5844564 -4.6033511 85.199036
-2.4370096 -4.5118179 85.061378
-2.0684981 -4.4793658 85.116348
-1.9264752 -4.4822593 85.104919
-1.7342703 -4.5215359 85.111885
-1.5153722 -4.4931078 85.116714
-1.3283248 -4.4510617 85.092018
2.5967569 -4.4580536 85.094757
2.6635954 -4.4499373 85.068054
-2.4596157 -4.2490301 85.059105
-1.8341266 -4.2774882 85.185432
-1.7266257 -4.3250713 85.130562
2.5919228 -4.2964053 85.102432
2.7025514 -4.3030806 85.103531
-2.4614544 -4.178019 85.039436
2.6290317 -4.0611296 85.171799
2.6269727 -3.8941844 85.17849
2.6697128 -3.7211144 85.12571
2.6666522 -3.5466032 85.089584
2.6827424 -3.3123977 85.106903
-6.0170355 -3.0900176 85.11586
-5.9250994 -3.108938 85.067703
-5.7886429 -3.109925 85.067902
2.6788704 -3.1282418 85.131813
-15.766296 -2.9641669 85.10006
-6.0200081 -2.8832681 85.085358
-5.8694124 -2.8844993 85.103729
-5.7843456 -2.8240681 85.19812
2.6757207 -2.9066699 85.071487
-15.832095 -2.6615577 85.094208
-15.756959 -2.7138557 85.106232
-5.766026 -2.6754153 85.066658
2.6889222 -2.7054977 85.093407
-15.847788 -2.4337316 85.095039
-15.748472 -2.5160191 85.062393
2.5742021 -2.5787866 85.102661
2.6178856 -2.5542808 85.102211
-2.3180637 -6.0741682 85.228531
-2.2774577 -5.908536 85.242455
2.5812445 -5.871551 85.293442
-15.813623 -5.4929399 85.23336
-7.6370955 -5.4715457 85.291901
-7.4750099 -5.4641242 85.243652
-7.0257254 -5.4665403 85.344543
-6.8435392 -5.4608078 85.368309
-6.7973385 -5.4580679 85.288002
-6.419632 -5.477046 85.290909
-5.8799877 -5.4596834 85.316711
-5.4768009 -5.4640436 85.273193
-5.1461387 -5.4728122 85.291862
-2.1769867 -5.4420414 85.315414
2.5078919 -5.4453087 85.263031
2.6409857 -5.4141617 85.369392
-15.816298 -5.3534093 85.245064
-11.29234 -5.2618833 85.264854
-2.213532 -5.3433218 85.310616
-2.1753731 -5.2702031 85.29512
2.6938705 -5.3329334 85.371826
-15.837867 -5.1763191 85.248856
-15.734225 -5.1638923 85.278214
-11.24334 -5.0689435 85.279472
-2.2047255 -5.1211433 85.297852
-2.1702414 -5.1270151 85.318222
2.6474502 -5.0855479 85.36544
-11.306127 -4.9698658 85.338623
-2.2049727 -4.8644829 85.320007
-2.1783822 -4.8946495 85.303497
-11.266468 -4.6581035 85.398102
-10.967747 -4.6251426 85.389709
-2.2205715 -4.6875887 85.376511
-2.1605916 -4.6959677 85.335159
2.6446824 -4.7430372 85.39782
-11.323491 -4.4077024 85.240196
-10.956635 -4.4890318 85.380196
-2.2088189 -4.4677162 85.371216
-2.1675508 -4.4875088 85.374084
2.5872662 -4.4471989 85.236099
2.6889484 -4.5085263 85.223618
-15.878538 -4.2847519 85.351929
-2.2138953 -4.3953266 85.29969
-2.1710913 -4.3621564 85.37603
-1.8637818 -4.3163896 85.283745
-3.2095983 -4.1746898 85.385139
2.6623616 -4.1238351 85.345955
2.6961043 -3.7950771 85.21315
-15.747116 -3.2291715 85.289886
-15.766189 -3.1367865 85.213776
-5.8395219 -3.0857742 85.291206
-5.7949696 -3.0265458 85.374489
2.6557863 -3.1209757 85.239159
-6.0306959 -2.8573608 85.315125
-5.8457789 -2.8689854 85.295975
-5.7916088 -2.9125712 85.228775
2.647459 -2.9187045 85.290039
-15.750694 -2.6837435 85.314346
2.5225303 -2.6354692 85.351845
2.6589935 -2.6823525 85.309647
-15.803495 -2.5016189 85.379112
-15.763 -2.5003271 85.235718
2.579649 -2.5873539 85.258041
-7.7499771 -5.475677 85.510826
-7.3844633 -5.4595928 85.57621
-7.1887259 -5.5115781 85.451004
-6.7790508 -5.4792652 85.469788
-5.9211121 -5.4711518 85.491714
-2.4808855 -5.4763746 85.478447
2.5179081 -5.4338689 85.551895
-15.697139 -5.2269549 85.596619
-11.246417 -5.2680583 85.587685
2.6803033 -5.3445702 85.544647
-15.793175 -5.1027575 85.562393
-15.764831 -4.8331208 85.586655
2.6621568 -4.8764291 85.59227
-15.841928 -4.7753639 85.538246
-10.953682 -4.6406779 85.479362
-2.2000961 -4.7549067 85.400864
-15.856707 -4.4190321 85.511711
-15.759431 -4.5442004 85.531754
-11.03926 -4.5155916 85.557755
-10.957151 -4.5088797 85.462288
-3.2639852 -4.4445329 85.508095
2.6806717 -4.5056071 85.488281
-15.787267 -4.2886291 85.514008
-11.038182 -4.33359 85.522064
-10.958129 -4.3462658 85.496925
-3.2692871 -4.3182449 85.447014
-3.0945218 -4.2980933 85.430748
-1.8370031 -4.3018889 85.44265
-1.7320281 -4.3238406 85.455399
2.6612997 -4.2789145 85.540543
-15.8646 -4.183054 85.544357
-15.790164 -4.143198 85.538452
-3.0813403 -4.1027117 85.425552
2.6746638 -4.1023898 85.495888
2.8013821 -4.1467566 85.46344
-15.806357 -3.9703684 85.414429
-15.780268 -3.9808764 85.563187
-3.0838952 -3.9797461 85.470161
2.6654618 -3.8640316 85.495338
-15.815065 -3.7348938 85.565453
-15.75981 -3.7029321 85.516861
2.6126611 -3.6479955 85.525574
2.8043098 -3.7225902 85.498566
-15.762029 -3.3644869 85.506432
-15.777452 -3.0512481 85.520844
-6.0155015 -3.1015952 85.497719
-5.873786 -3.0978878 85.493942
-5.7951636 -3.0559464 85.587723
2.6446192 -3.100971 85.535347
-6.038445 -2.893043 85.470749
-5.8780346 -2.8941929 85.499046
-5.7846727 -2.8469477 85.477463
-15.812371 -2.718065 85.480278
2.5915382 -2.6302018 85.406677
2.6478319 -2.7093334 85.485191
-15.825895 -2.564692 85.597382
2.586741 -2.593812 85.406418
2.620528 -2.4706855 85.501518
-15.709834 -5.466948 85.732704
-11.025 -5.4199414 85.750832
-7.2593842 -5.4819813 85.655144
-6.6499338 -5.4869413 85.721321
-6.0416899 -5.4861279 85.683945
-5.9322319 -5.4881382 85.714485
-5.0946465 -5.4798279 85.629936
2.6456058 -5.4149284 85.685791
-15.840375 -5.2177944 85.601166
-15.676675 -5.2936239 85.676262
-11.261551 -5.3351641 85.671844
2.5830154 -5.3748245 85.724213
2.6941848 -5.3171177 85.728409
-15.682666 -5.0623426 85.685799
-11.04031 -5.1083899 85.75769
2.6395009 -5.1498127 85.742973
-15.681069 -4.9016323 85.707687
2.6494875 -4.8856821 85.617798
-15.681843 -4.6714749 85.71843
-11.036998 -4.6317105 85.716972
-10.985436 -4.6639752 85.643471
2.6432562 -4.734642 85.714691
-15.683229 -4.4819412 85.733765
-10.987823 -4.5034108 85.655441
2.643502 -4.4902754 85.711411
-15.852809 -4.2703934 85.696808
-15.704349 -4.3102732 85.727295
-11.027677 -4.3444505 85.695557
-10.993687 -4.3040009 85.623886
2.6627941 -4.299263 85.70153
-15.83557 -4.0771637 85.650795
-15.768363 -4.1110826 85.660767
2.6667321 -4.0835195 85.682388
-15.859911 -3.8619955 85.636345
-15.782395 -3.8692667 85.640251
2.6746738 -3.9137101 85.678749
-15.831112 -3.7588809 85.666725
-15.697233 -3.6660447 85.75074
2.6589932 -3.7665718 85.703911
-15.962135 -3.5150566 85.632309
-15.695235 -3.4922302 85.775581
2.603862 -3.4594626 85.751846
-15.955608 -3.2776756 85.628044
-15.692972 -3.2808974 85.772964
2.6831293 -3.3293886 85.694954
-15.802529 -3.0575795 85.756752
-15.691806 -3.0923092 85.77919
-6.0278797 -3.0999806 85.752991
-5.8603277 -3.0893788 85.709183
2.5616283 -3.1004601 85.716988
2.6324425 -3.114995 85.715118
-15.702641 -2.8879008 85.777626
-6.0343075 -2.8848596 85.764565
-5.8728752 -2.8955016 85.721375
-5.7851248 -2.8529837 85.718796
2.5549061 -2.9608381 85.727371
2.6717803 -2.9253492 85.745102
-15.884876 -2.765934 85.699875
-15.691799 -2.7303159 85.759491
-6.0586634 -2.7291601 85.742485
2.5614433 -2.7089663 85.714119
2.650126 -2.6822867 85.704239
-15.78557 -2.5230441 85.708534
2.6381578 -2.5566022 85.78537
2.4675083 -5.8068099 85.951134
2.4937243 -5.7534561 85.921791
-15.655174 -5.4765191 85.916039
-7.7711086 -5.5068026 85.872765
-7.3288927 -5.5065351 85.823715
-6.6839314 -5.4849091 85.959213
-6.0757618 -5.4957705 85.928299
-5.8586316 -5.4953032 85.924057
-5.6141958 -5.4983249 85.943291
-2.2231846 -5.4434443 85.851768
-2.180794 -5.4317451 85.895409
-1.9702382 -5.4793887 85.803535
2.5074894 -5.4262772 85.849335
2.672138 -5.4102969 85.853317
-15.819559 -5.2180719 85.830406
-15.680387 -5.2961364 85.952103
-2.2063873 -5.2813215 85.87986
-2.1713071 -5.3030133 85.894875
2.5430474 -5.2741899 85.939583
2.6619875 -5.2720752 85.881874
-15.693501 -5.1407886 85.943779
-2.2081592 -5.0673132 85.90007
-2.1681123 -5.0637302 85.880447
2.5437815 -5.0989809 85.929573
2.6403904 -5.1400795 85.86557
-15.697403 -4.9015079 85.937935
-2.2007952 -4.9155998 85.881355
-2.190412 -4.8274093 85.935745
2.5338073 -4.8784008 85.924515
2.6485007 -4.8911839 85.87841
-15.849443 -4.6949148 85.890999
-15.67977 -4.7074614 85.936752
-11.366824 -4.7413664 85.963249
-11.050212 -4.6483064 85.941132
-2.1739311 -4.6881089 85.90564
2.5352926 -4.6832256 85.934807
2.6536868 -4.6981435 85.870079
-15.677933 -4.481236 85.93058
-11.051718 -4.4931374 85.930542
-2.2064753 -4.5955667 85.957458
-2.1333373 -4.4709907 85.951096
2.5466957 -4.4933672 85.949638
2.6390352 -4.5145583 85.862396
-15.633536 -4.3209062 85.944092
-15.578661 -4.2999229 85.929306
-11.046803 -4.3356338 85.878891
-2.006623 -4.384932 85.938988
-1.8526949 -4.3621788 85.973778
-1.7290152 -4.3381701 85.925392
2.5437582 -4.344954 85.963272
2.6359739 -4.2673111 85.866211
-15.802879 -4.0858145 85.815353
-15.658168 -4.1431603 85.885155
-15.578029 -4.1039076 85.901573
2.593008 -4.1610017 85.913719
2.6390018 -4.0960736 85.880219
-15.654899 -3.933043 85.905754
-15.577677 -3.9129066 85.909798
2.532424 -3.9355774 85.967804
2.6379974 -3.8832953 85.894417
-15.846667 -3.7360086 85.817673
-15.699464 -3.6780076 85.837158
-15.577995 -3.7699199 85.921608
2.5510292 -3.6404333 85.940201
2.6415124 -3.7095642 85.899292
-15.814515 -3.4839997 85.857529
-15.712711 -3.503464 85.849358
2.5478284 -3.50457 85.956345
2.6487722 -3.4678123 85.89801
-15.711505 -3.3048813 85.850464
2.5470266 -3.2981179 85.961952
2.6259718 -3.3002996 85.906464
-15.705096 -3.0977187 85.855484
-6.060936 -3.1197815 85.943588
-5.8721294 -3.0934596 85.908974
-5.7919788 -3.1516151 85.93528
2.5323923 -3.1073389 85.951302
2.6567209 -3.1271408 85.923042
-15.705583 -2.9020591 85.864479
-6.0440044 -2.9678824 85.887848
-5.8639336 -2.8947761 85.882324
-5.7939372 -2.8653889 85.924744
2.5470529 -2.9128203 85.976822
2.650275 -2.9684784 85.8964
-15.810165 -2.7372112 85.982101
-15.698353 -2.7373867 85.867058
2.5564339 -2.7248566 85.974976
2.6414785 -2.7354698 85.910751
-15.716658 -2.5979948 85.888847
2.5730295 -2.5503478 85.970001
2.6051664 -2.54881 85.807388
-15.725711 -5.4908867 86.140114
-11.209487 -5.5392566 86.091522
-7.5263519 -5.5043874 86.023407
-7.3455267 -5.5124435 86.125137
-6.867012 -5.4990025 86.101471
-6.2902136 -5.5051193 86.053474
-5.6746016 -5.5030489 86.056229
-5.4172726 -5.5022492 86.173553
-2.2172222 -5.4445109 86.114807
-2.1742783 -5.4056067 86.08078
2.5499525 -5.4162383 86.095169
2.6518674 -5.4305134 86.108757
-15.672525 -5.3116999 86.010674
-2.2330909 -5.328845 86.103828
-2.1613414 -5.2667093 86.117989
2.5448372 -5.3030319 86.082619
2.6378555 -5.2692885 86.134232
-15.715488 -5.0982761 86.064827
-2.2174346 -5.1430354 86.090843
-2.1683841 -5.1340656 86.112076
2.5379443 -5.0772443 86.068443
2.6385536 -5.1008239 86.153374
-15.694939 -4.8966904 86.03434
-11.289012 -4.9218245 86.029037
-2.2158933 -4.9294548 86.08989
-2.1730027 -4.8951859 86.138092
2.5407584 -4.9096508 86.067322
2.6271908 -4.9044452 86.157745
-15.724762 -4.6403971 86.078362
-11.089442 -4.6494088 86.073181
-2.2285066 -4.7535534 86.143326
-2.1744547 -4.6759577 86.156227
2.5599573 -4.7100773 86.090736
2.6359966 -4.6979976 86.136459
-15.703419 -4.4852929 86.065384
-11.104136 -4.4863534 86.132446
-2.2205319 -4.5781775 86.143272
-2.1749618 -4.5696173 86.113655
2.5369549 -4.4945021 86.071266
2.6254795 -4.5074162 86.136162
-15.68166 -4.3441315 86.077812
-15.574844 -4.2638817 86.134636
-11.086518 -4.3551502 86.096207
-1.8887038 -4.3524542 86.080704
2.5152988 -4.308177 86.075394
2.6373625 -4.3000693 86.089859
-15.628498 -4.0463839 86.083923
-15.592724 -4.1896501 86.128265
2.4622149 -4.0880799 86.090065
2.6214008 -4.1776562 86.041397
-15.558455 -3.839386 86.072823
2.3942115 -3.9474506 86.097809
2.4652927 -3.8917561 86.103859
2.6116183 -3.8410935 86.027397
-15.722804 -3.6843424 86.151459
-15.544915 -3.7657199 86.117493
2.3857212 -3.7427666 86.13726
2.508548 -3.6950815 86.071724
2.6285384 -3.674545 86.12307
-15.745975 -3.4990585 86.157707
2.5269024 -3.5005741 86.055183
2.6336527 -3.4780045 86.108788
-15.746343 -3.2704074 86.130974
2.532341 -3.2918494 86.05481
2.6563256 -3.3062794 86.093086
-15.872223 -3.1367123 86.07373
-15.748999 -3.0939755 86.157616
-6.0318007 -3.1016879 86.129265
-5.8801136 -3.1113365 86.101524
-5.7915468 -3.1762853 86.154434
2.5447652 -3.092854 86.077698
2.6269474 -3.1050985 86.066666
-15.883255 -2.966073 86.131317
-15.741964 -2.9358683 86.135971
-6.0342326 -2.8867664 86.091194
-5.8325853 -2.888576 86.115341
-5.7959733 -2.8756945 86.184433
2.5309296 -2.8853261 86.073891
2.6165869 -2.9000225 86.065796
-15.722285 -2.7091198 86.072609
-6.0295944 -2.7799339 86.1782
2.3642831 -2.6753631 86.120781
2.5317638 -2.7120512 86.071693
2.6322117 -2.6742744 86.169167
-15.903082 -2.5921309 86.067078
-15.757163 -2.540041 86.009636
2.5100212 -2.4808547 86.092659
-10.861815 -6.0408335 86.384964
-10.889393 -5.8478374 86.391006
-15.785439 -5.4837255 86.271095
-11.29643 -5.5073986 86.285301
-10.909009 -5.4770865 86.376007
-7.7720509 -5.4826069 86.312943
-7.3158422 -5.523932 86.311874
-6.9201922 -5.5023556 86.269608
-6.6682715 -5.497149 86.283104
-6.4521227 -5.5015583 86.335869
-6.3445768 -5.5135427 86.2873
-5.9935508 -5.5065284 86.329185
-5.717123 -5.5186834 86.239006
-5.2200942 -5.5069771 86.25499
2.4594059 -5.4891701 86.226593
2.6055777 -5.4685044 86.335129
-15.851406 -5.2225418 86.220306
-15.734864 -5.2453413 86.280151
-11.294907 -5.3513312 86.267647
-10.928565 -5.3227115 86.359146
2.669837 -5.316421 86.265907
-15.741364 -5.1134591 86.227631
-11.275999 -5.1134014 86.330544
-11.133862 -5.0093856 86.379677
-10.969297 -5.1077552 86.337364
2.4861686 -5.1513319 86.220024
2.6505494 -5.0838456 86.265945
-15.761391 -4.886961 86.37838
-11.262206 -4.8393307 86.325455
-11.15336 -4.8248811 86.334396
2.5403216 -4.8415794 86.259705
2.6801414 -4.9071488 86.255852
-15.783233 -4.6846714 86.228294
-11.252267 -4.7299232 86.330666
-11.185349 -4.6818466 86.305618
-10.947201 -4.6713181 86.348694
2.5934274 -4.7051468 86.261086
2.6592975 -4.6749411 86.276047
-15.76582 -4.4889131 86.317497
-11.252577 -4.5200768 86.336655
-11.097666 -4.4688268 86.323364
2.5471544 -4.5222898 86.241562
2.6576879 -4.5236597 86.272873
-15.646487 -4.2819633 86.320648
-15.592796 -4.2816162 86.392067
-11.273503 -4.3985686 86.372086
-1.7903483 -4.3392067 86.201355
2.4854646 -4.2479825 86.308075
2.6357849 -4.3304543 86.278847
-15.674405 -4.103189 86.351318
-15.567954 -4.1020741 86.343826
2.3837171 -4.0425816 86.331314
2.4560323 -4.0921392 86.287888
-15.669044 -3.9162402 86.361801
-15.582429 -3.9157429 86.328896
2.4858098 -3.8596747 86.353035
2.6285024 -3.8979249 86.319595
-15.72199 -3.6837153 86.252266
-15.576174 -3.7762144 86.349304
2.3913369 -3.7568028 86.303719
2.480109 -3.7193553 86.310616
2.6375728 -3.6168568 86.315033
-15.80328 -3.423152 86.250832
-15.717326 -3.4738019 86.235847
2.5571456 -3.4980743 86.358086
2.6201093 -3.5326726 86.293098
-15.808149 -3.2545969 86.276733
-15.738236 -3.3170662 86.23819
2.5643089 -3.3049269 86.356171
2.6011794 -3.2919502 86.232834
-15.730633 -3.098707 86.247032
-6.0376544 -3.1418846 86.319962
-5.8562589 -3.11306 86.316383
2.5645261 -3.120805 86.340637
2.6081369 -3.1852946 86.264465
-15.803255 -2.8718634 86.315178
-15.732416 -2.8344014 86.255241
-6.0385513 -2.8974786 86.303398
-5.8583064 -2.9239225 86.301392
2.5713761 -2.9166148 86.336739
2.6420765 -2.8955576 86.33149
-15.718246 -2.7362888 86.27137
-15.558532 -2.749084 86.319809
-6.0369358 -2.7447183 86.235443
2.5462263 -2.7164414 86.295113
2.6324093 -2.6779716 86.303352
-15.763803 -2.5674319 86.284813
2.5382173 -2.4891644 86.321625
-10.846137 -6.0407653 86.465729
2.5262921 -6.041708 86.496445
-10.842392 -5.84516 86.471375
2.5649819 -5.8951683 86.552551
-10.869308 -5.7416592 86.496483
2.5815487 -5.6576886 86.507011
-11.006458 -5.4138441 86.459702
-10.920969 -5.4974651 86.504456
-10.291975 -5.5448427 86.499985
-8.0598297 -5.5287371 86.417648
-7.602901 -5.527617 86.411751
-7.5456195 -5.528553 86.507156
-7.1077061 -5.5343475 86.593697
-6.8011155 -5.5578032 86.429871
-6.6606426 -5.5317979 86.559853
-6.2341399 -5.5204649 86.514816
-6.066391 -5.5342655 86.491737
-5.9997559 -5.4955058 86.45874
-5.774334 -5.5152922 86.4646
-2.1825953 -5.4934378 86.494164
1.8250122 -5.4415932 86.54023
2.5481975 -5.5080051 86.503746
2.7173672 -5.4198275 86.422623
-15.72582 -5.2676363 86.495079
-11.222393 -5.3266945 86.472939
-10.925859 -5.2846575 86.502914
2.5737829 -5.3192997 86.520142
2.745223 -5.2910719 86.43045
-15.702755 -5.1932936 86.544067
-11.585885 -5.0590658 86.545349
-11.001963 -5.1391912 86.428497
-10.927817 -5.0955763 86.50518
2.5523698 -5.1473718 86.531921
2.6575482 -5.1368356 86.492226
-11.015056 -4.8024187 86.567993
-10.946102 -4.9080453 86.493828
2.6232789 -4.884069 86.538452
-15.757314 -4.6856632 86.459801
-11.2767 -4.7059975 86.468918
-11.052499 -4.7062097 86.491478
-10.958991 -4.7000647 86.531357
2.6714742 -4.754015 86.459778
-15.815066 -4.4985852 86.585304
-11.22323 -4.4111624 86.512276
-11.103982 -4.4768238 86.5019
-10.946235 -4.5791264 86.499504
2.690906 -4.450458 86.51606
-15.824638 -4.3329463 86.491386
-15.719488 -4.303123 86.496201
-15.572965 -4.2735672 86.41861
-3.0132878 -4.2557087 86.470779
2.4506848 -4.2522082 86.507378
2.6394129 -4.3048162 86.567535
-15.837565 -4.0963154 86.548668
-15.689338 -4.0961194 86.469238
-15.57108 -4.1153698 86.439018
2.458895 -4.1204219 86.508423
2.6403198 -4.1740079 86.555817
-15.823459 -3.8974597 86.537506
-15.680833 -3.8995602 86.465546
-15.582363 -3.899024 86.439903
2.3943346 -3.888339 86.483612
2.4663169 -3.9022319 86.530342
2.6330278 -3.9802725 86.590118
-15.837791 -3.7467282 86.535461
-15.696652 -3.7739413 86.46579
-15.58433 -3.7972782 86.423615
2.4986939 -3.7010074 86.500191
2.6427641 -3.6511128 86.526711
-15.915649 -3.4180956 86.572342
-15.742996 -3.4963098 86.458786
2.5813122 -3.522886 86.450966
2.6452889 -3.5003796 86.48568
-15.778331 -3.3252139 86.584282
2.5733626 -3.3033569 86.454247
2.6433482 -3.3115702 86.500397
-6.0272088 -3.1120737 86.506638
-5.8531799 -3.1218703 86.497612
-5.7994862 -3.1016667 86.412971
2.5742218 -3.1149623 86.465843
2.6378112 -3.0858886 86.495544
-15.905021 -2.8387735 86.590462
-15.691332 -2.8610647 86.402718
-6.0370026 -2.9126205 86.489487
-5.8472047 -2.8963702 86.535728
2.5681243 -2.9016955 86.465157
2.6388571 -2.871547 86.473244
-15.815125 -2.782496 86.488144
-15.742778 -2.7048619 86.49469
-5.6368108 -2.7498469 86.449707
2.5605667 -2.7427704 86.455696
2.6443274 -2.7613292 86.519577
-15.748442 -2.5794501 86.444344
2.5842869 -2.5664229 86.448967
-10.803255 -5.649169 86.649231
2.5885987 -5.6169939 86.701202
-15.739696 -5.5006542 86.707558
-11.007618 -5.456636 86.741402
-10.914872 -5.5051885 86.659203
-8.1147604 -5.5124993 86.664261
-7.7104735 -5.4924684 86.763443
-7.2699986 -5.5275097 86.624771
-7.1197376 -5.5353627 86.773407
-5.6986485 -5.5332098 86.669846
-2.2499723 -5.5114775 86.660057
-2.1843848 -5.4914289 86.651855
2.5552292 -5.48247 86.685448
2.6344731 -5.5636806 86.661911
-15.757806 -5.27913 86.754745
-10.93038 -5.3053923 86.646935
-2.2292051 -5.2664719 86.685806
-2.1814406 -5.3265276 86.696335
2.5953743 -5.214437 86.750404
2.6365032 -5.3450775 86.649834
-15.768055 -5.126729 86.626625
-11.003593 -5.0502214 86.744461
-10.940799 -5.0593061 86.656372
-2.2133789 -5.0784669 86.701561
-2.1694291 -5.0997415 86.732452
2.600903 -5.1930389 86.619339
-15.814215 -4.9008236 86.648155
-11.654716 -4.9011445 86.628113
-11.269045 -4.8532906 86.640312
-11.002072 -4.8051038 86.643929
-10.950725 -4.9020128 86.662941
-2.2094338 -4.9290328 86.710335
-2.1496027 -4.9127531 86.72525
-15.756042 -4.6753387 86.680878
-11.724382 -4.7878675 86.654953
-11.331938 -4.7657938 86.67173
-10.951364 -4.7091508 86.652405
-2.2002425 -4.6018591 86.728691
-2.1302848 -4.6689935 86.702972
2.6253872 -4.7436519 86.606911
-15.743505 -4.599791 86.763573
-11.30592 -4.4250917 86.661064
-11.037335 -4.5199385 86.622734
-10.947598 -4.5651493 86.628563
-2.1350806 -4.5398378 86.718178
-1.8682355 -4.4048843 86.747253
-15.816488 -4.3444428 86.687675
-15.781602 -4.2923026 86.692322
-1.8454523 -4.3710113 86.762268
-1.6936126 -4.3683376 86.717087
2.5199196 -4.265111 86.690491
2.6353917 -4.240387 86.688103
-15.806719 -4.1651564 86.692299
-15.767469 -4.1253967 86.648132
2.4679215 -4.0907154 86.657799
2.6377437 -4.1186204 86.694145
-15.812426 -3.9586596 86.687393
-15.768196 -3.8841047 86.64756
2.3774147 -3.9129255 86.634605
2.4686413 -3.8863468 86.669121
2.643837 -3.8826859 86.717194
-15.766048 -3.6787305 86.792603
2.3954315 -3.7514732 86.630722
2.4982924 -3.747612 86.708115
2.6395135 -3.7082229 86.700378
2.6402926 -3.4299941 86.709503
-15.80724 -3.2949195 86.734032
-5.815136 -3.2007463 86.71006
-15.840492 -3.1355932 86.684555
-6.0375795 -3.1374397 86.685143
-5.8724971 -3.0933216 86.693153
-5.7951441 -3.0120924 86.782188
2.6676884 -3.1882117 86.79245
-15.768183 -2.9525576 86.707138
-6.0548964 -2.9050682 86.689171
-5.8367181 -2.9180582 86.720329
-15.739002 -2.7236574 86.680542
2.5678465 -2.6763852 86.704971
2.6377861 -2.6991479 86.730064
-15.7623 -2.584264 86.786674
-15.738842 -5.4765453 86.929428
-10.180121 -5.5586915 86.968575
-7.8980799 -5.5401926 86.852478
-7.6308336 -5.5436339 86.881493
-7.0115337 -5.4926863 86.862335
-6.9040813 -5.546607 86.961945
-2.2291038 -5.4942565 86.886391
-2.1242428 -5.4841928 86.91655
2.5763166 -5.4740305 86.955025
2.6492803 -5.4598083 86.93158
-15.756714 -5.3215384 86.908577
-2.2183018 -5.2938919 86.916763
-2.1104286 -5.2867603 86.911209
2.5970299 -5.3927917 86.964912
2.7360404 -5.2826519 86.816383
-15.809665 -5.0792542 86.923561
-15.785347 -5.0509663 86.843056
-2.2147508 -5.106051 86.939369
-2.1937819 -5.1171608 86.84977
2.6765301 -5.1797771 86.877922
-15.759022 -4.9525595 86.929077
-2.2151167 -4.8705525 86.919464
-2.1650939 -4.952148 86.93396
2.6404672 -4.8043156 86.966789
-2.2033963 -4.7047048 86.907608
-2.1706743 -4.7225575 86.895668
2.5895977 -4.6198745 86.960884
2.642736 -4.6981082 86.964226
-15.79052 -4.5758567 86.998474
-10.988067 -4.5504007 86.800278
-2.2010665 -4.595645 86.878662
-2.1045125 -4.5384336 86.919434
-1.9033365 -4.411808 86.905357
2.706435 -4.5254722 86.88398
-15.788939 -4.325181 86.887146
-1.8832636 -4.3796597 86.873306
2.5263765 -4.2364035 86.820717
2.6723528 -4.278399 86.97995
-15.773773 -4.0321383 86.981422
2.5407169 -4.0497427 86.804276
2.6461539 -4.0984688 86.883484
-15.795337 -3.8769712 86.844933
2.5140245 -3.8633153 86.829659
2.6407461 -3.9021115 86.893799
2.6834891 -3.7233801 86.806671
-15.751428 -3.4294002 86.936516
2.6718862 -3.4641128 86.98941
-15.870337 -3.2265096 86.806801
-15.723048 -3.2789936 86.956932
2.8405828 -3.3536217 86.98587
-15.712527 -3.123461 86.970543
-6.045424 -3.1861591 86.883789
-5.8516035 -3.1266654 86.894829
2.658792 -3.1318445 86.84211
-15.801857 -2.9071457 86.935837
-15.769978 -2.9370911 86.964676
-6.0538344 -2.9182053 86.91095
-5.8548317 -2.911094 86.932274
2.7369099 -2.8843775 86.888168
-15.744944 -2.7257724 86.87645
2.5170937 -2.6920462 86.929138
2.673775 -2.69472 86.851562
2.5849812 -2.5090752 86.986404
2.6126254 -2.5624542 86.873985
-15.673689 -5.6397543 87.004333
-10.778827 -5.6718373 87.159775
-10.899397 -5.5755 87.167549
-7.8672915 -5.560565 87.10923
-7.5895042 -5.5525703 87.03614
-7.3139067 -5.5241237 87.177605
-6.9182196 -5.5107164 87.005608
-6.4760466 -5.5525017 87.084984
2.5077212 -5.4924073 87.09581
2.6348531 -5.474668 87.085854
-15.756229 -5.3034234 87.107635
-10.946403 -5.0885944 87.169373
2.5833373 -5.039381 87.008865
-10.940976 -4.9306192 87.171722
-15.764259 -4.708559 87.034508
-10.910398 -4.7785625 87.181725
-2.1842928 -4.7951083 87.025185
-15.897427 -4.486927 87.018791
-15.75118 -4.5322461 87.118973
-11.261236 -4.4475026 87.18586
-11.016037 -4.4987936 87.186821
-10.910355 -4.5837111 87.190987
-2.1682215 -4.570972 87.042526
2.6391525 -4.4916916 87.12957
-15.854633 -4.3089981 87.090424
-15.756833 -4.3000555 87.103477
-1.9077462 -4.375679 87.029419
-1.7585423 -4.3726377 87.041397
2.5698032 -4.2369728 87.046776
-15.780241 -4.1077251 87.085976
2.6031144 -4.0131578 87.176857
-15.742647 -3.8717799 87.149254
2.5920067 -3.8047109 87.017387
2.6562724 -3.928349 87.010361
-15.768972 -3.6731853 87.041534
2.5798883 -3.6537418 87.090309
2.6463318 -3.7908883 87.021713
-15.775447 -3.4780095 87.107666
2.615078 -3.4309587 87.111923
-15.827021 -3.3587856 87.148148
-15.723752 -3.2810214 87.057648
-6.0091896 -3.2012877 87.070869
-5.8275304 -3.2052541 87.08551
2.6324492 -3.3708305 87.101791
-15.731059 -3.1416147 87.050262
-6.0518246 -3.0886369 87.143417
-5.856967 -3.1264327 87.07019
2.7114453 -3.0378866 87.057434
-15.7815 -2.923666 87.09687
-6.0276508 -2.9212782 87.094086
-5.8456297 -2.9108882 87.125397
2.6692891 -2.9169507 87.149422
-15.745364 -2.7390785 87.105103
2.5223095 -2.6934378 87.111633
2.6359122 -2.6408341 87.039398
2.638484 -2.5975132 87.025543
-10.828646 -6.1311998 87.346687
-15.761968 -5.605289 87.256836
-10.923934 -5.6159434 87.205315
-15.777784 -5.5517135 87.244949
-10.900805 -5.4990816 87.277466
-7.4554772 -5.5140953 87.243698
-7.2160578 -5.5570965 87.275932
-6.3289595 -5.5638561 87.247673
-6.1004667 -5.5586457 87.22702
-2.3314304 -5.5518699 87.30513
2.5764165 -5.5194664 87.283661
2.7124705 -5.4768667 87.297539
-15.735518 -5.2106185 87.325279
-10.899765 -5.270834 87.346016
2.66699 -5.3466067 87.295227
-10.927292 -5.1227074 87.302704
2.6967099 -5.0563388 87.239372
-15.794307 -4.8594718 87.326248
-11.007097 -4.8253794 87.383263
-10.932571 -4.9036827 87.334801
2.630245 -4.8158445 87.373146
-15.721653 -4.6813359 87.231186
-11.014858 -4.6732216 87.332748
-10.942966 -4.6976819 87.306038
2.6118515 -4.6292062 87.30294
-15.755932 -4.517756 87.293907
-11.245517 -4.4569516 87.291969
-11.14178 -4.4719558 87.282478
-10.97776 -4.5693536 87.261787
2.6197882 -4.5670109 87.210274
-15.75563 -4.3289576 87.307861
2.5951068 -4.3468375 87.396927
2.7058687 -4.2697968 87.29467
-15.742152 -4.0994515 87.302368
2.6366892 -4.1117077 87.295654
-15.758522 -3.91908 87.355362
2.5329063 -3.9019065 87.396111
2.6657331 -3.8768911 87.385269
-15.819115 -3.6831737 87.263184
2.6499338 -3.6211336 87.246422
-15.764492 -3.4724228 87.256065
2.5585151 -3.5269656 87.233643
2.6644342 -3.5048964 87.267601
-15.825964 -3.2795415 87.251846
-6.0321021 -3.2320409 87.365273
-5.9801931 -3.2030458 87.226959
-15.835329 -3.0739298 87.205421
-15.782608 -3.1149874 87.326912
-6.0337524 -3.1635838 87.383881
-5.8450031 -3.091584 87.295959
2.5769169 -3.1941538 87.376732
2.6689446 -3.1041269 87.297112
-15.810806 -2.8242838 87.385475
-15.74999 -2.8775566 87.292053
-6.0532608 -2.957561 87.293884
-5.8367257 -2.9451482 87.259659
2.6608384 -2.9322655 87.286346
-15.792377 -2.7312872 87.310425
-15.51988 -2.7460363 87.316177
2.5301929 -2.6822643 87.331238
2.6274335 -2.7289603 87.267548
2.5862019 -2.4965305 87.296585
-6.5164828 -6.3042512 87.582001
-6.4649301 -6.0141454 87.570526
-6.3318338 -6.0819464 87.553497
-6.1681323 -6.0953035 87.552605
-10.851141 -5.937644 87.404503
-6.4815545 -5.9319992 87.536926
-6.3391809 -5.927763 87.569504
-11.024683 -5.6119142 87.545448
-10.861773 -5.6727328 87.455566
-6.6830063 -5.7037859 87.572929
-6.4842978 -5.6634178 87.547768
-6.367836 -5.7285957 87.537331
-6.1847277 -5.6912994 87.552628
-15.728747 -5.4251709 87.500443
-10.909266 -5.5244322 87.443954
-6.8171349 -5.5411172 87.592407
-6.6755638 -5.5676632 87.54422
-6.5735598 -5.5135603 87.571915
-5.4155102 -5.5675006 87.419823
-2.2198591 -5.5273414 87.458588
-2.1775947 -5.4831433 87.480408
2.5774021 -5.4690003 87.515915
2.6398706 -5.4830155 87.497223
-15.745829 -5.2947845 87.473099
-10.920521 -5.2951388 87.463982
-6.5132961 -5.3224897 87.597885
-2.211612 -5.3361392 87.461067
-2.1767359 -5.2694778 87.486115
-15.750623 -5.1731601 87.468048
-10.906331 -5.1168976 87.44017
-2.2217884 -5.0860691 87.527306
-2.1525729 -5.0839062 87.456596
2.6431706 -5.1414042 87.446037
-11.709726 -4.8267813 87.451538
-11.32571 -4.8394842 87.419464
-10.94553 -4.9137578 87.463081
-2.2139704 -4.9044857 87.504684
-2.1479042 -4.8939295 87.492744
2.6388166 -4.9607639 87.441208
-15.740082 -4.741353 87.50882
-11.076444 -4.6671104 87.495453
-10.947667 -4.6934352 87.463661
-2.1496108 -4.6567788 87.491707
2.6417418 -4.6804748 87.597282
-15.750156 -4.4688921 87.522697
-11.227843 -4.4735456 87.460625
-11.043962 -4.5291748 87.443848
-10.997059 -4.5854926 87.421692
-2.9426947 -4.4571414 87.586876
-2.0846839 -4.5336165 87.495583
-1.8542928 -4.4523001 87.50351
-1.7287241 -4.4272637 87.526733
2.5867617 -4.4986997 87.505341
-15.764679 -4.2778554 87.563034
-5.5967731 -4.3974161 87.501328
2.6198521 -4.3274765 87.562531
-15.733892 -4.0244088 87.524643
-15.727934 -3.9344947 87.480843
2.6122532 -3.888917 87.45874
-15.829243 -3.7825518 87.480705
-15.766618 -3.6733139 87.496033
2.5896454 -3.6439462 87.549316
2.6469014 -3.7168541 87.504601
-15.778696 -3.5021186 87.491455
2.6112564 -3.4589467 87.516991
-15.763848 -3.3109016 87.539856
-6.0338316 -3.2517347 87.414017
2.6436362 -3.3255646 87.477417
-15.769936 -3.0773237 87.515762
-6.0491238 -3.0708663 87.438187
-5.8549914 -3.1001461 87.515869
-5.7695618 -3.0791295 87.452179
2.6486585 -3.1085796 87.46991
-15.840557 -2.8113723 87.459587
-15.761942 -2.8289421 87.516106
-6.0424309 -2.9470787 87.583168
-5.8332152 -2.9423256 87.481346
2.685679 -2.9191394 87.477173
-15.736105 -2.768106 87.512451
2.2932177 -2.7420309 87.454842
2.5603299 -2.6907945 87.451347
2.6396685 -2.7820184 87.486397
2.6199293 -2.4992919 87.582443
-6.6885934 -6.2170029 87.7761
-6.3688107 -6.2763929 87.679581
-6.6225562 -6.0854158 87.613556
-6.2337551 -6.1547527 87.645187
-6.1352787 -6.1119819 87.69725
-5.9754333 -6.1630516 87.742325
-7.0843239 -5.8665204 87.760963
-6.8799195 -5.8937206 87.66066
-6.706399 -5.8721437 87.629204
-6.5861015 -5.8840103 87.62693
-6.2558212 -5.852416 87.690933
-6.1293511 -5.9405632 87.738548
-6.9169464 -5.7025628 87.702324
-6.7491722 -5.6830039 87.664497
-6.5097804 -5.7176023 87.626183
-6.3309078 -5.7517033 87.615517
-6.1136861 -5.703795 87.747078
-5.4482121 -5.6029053 87.75692
2.505429 -5.6609154 87.73761
2.6086276 -5.7747431 87.712761
-15.670242 -5.5658903 87.637871
-7.963829 -5.5825319 87.708755
-7.0076838 -5.4582486 87.765129
-6.9242349 -5.480413 87.707039
-6.7180161 -5.4976792 87.651154
-6.5098081 -5.4756122 87.638672
-6.2703657 -5.5004945 87.693939
-6.1171088 -5.5093899 87.746933
-2.2167506 -5.5552745 87.690849
-2.1876457 -5.4841619 87.682816
2.5248039 -5.5143456 87.63678
2.6276515 -5.4780173 87.646156
-15.726733 -5.3201466 87.70359
-7.0085373 -5.3140354 87.779274
-6.9238844 -5.318964 87.744293
-6.6510515 -5.2937913 87.671158
-6.5043178 -5.3032556 87.644569
-6.3120956 -5.3111773 87.698807
-6.1496506 -5.2717423 87.72551
-2.9215012 -5.3285041 87.763199
-2.2166579 -5.3275499 87.734077
-2.1666908 -5.3260427 87.680664
2.6342428 -5.3195043 87.79435
-15.83075 -5.1768675 87.759239
-15.758594 -5.0626473 87.702385
-7.0070896 -5.147747 87.773926
-6.8605361 -5.0688152 87.72776
-6.7114887 -5.1228309 87.685921
-6.5177526 -5.1068521 87.667274
-6.3011556 -5.1011457 87.700256
-6.1138759 -5.1083775 87.751877
-3.0152712 -5.1445894 87.769905
-2.215766 -5.1271353 87.724579
-2.1755109 -5.0730739 87.74073
2.6325533 -5.1028581 87.745522
-15.74617 -4.9332571 87.777473
-6.886147 -4.9076133 87.742012
-6.6706262 -4.8673496 87.684509
-6.5248914 -4.8849692 87.668159
-6.3201022 -4.9012737 87.709473
-6.1422939 -4.8656158 87.747498
-3.050674 -4.9765296 87.716599
-2.2177267 -4.9949093 87.657677
-2.1857429 -4.8673229 87.70739
2.6395519 -4.8937569 87.757111
-15.747762 -4.6990123 87.770256
-7.0053711 -4.7782435 87.758774
-6.9226041 -4.7187343 87.770103
-6.7104836 -4.6877894 87.712715
-6.5021996 -4.6796079 87.69014
-6.3242068 -4.6958485 87.737679
-6.1501498 -4.7036576 87.757172
-3.0813689 -4.7146173 87.668732
-2.207145 -4.7499828 87.65506
-2.1817548 -4.6575575 87.712418
2.5982754 -4.7169933 87.779305
2.6598945 -4.6646471 87.70224
-15.850613 -4.4561176 87.629692
-15.750748 -4.497333 87.748756
-7.0050054 -4.5891314 87.773392
-6.8647189 -4.4787107 87.766777
-6.6964898 -4.4842014 87.721771
-6.487596 -4.5145936 87.697426
-6.3043427 -4.5012312 87.737206
-6.1619344 -4.5413051 87.774391
-2.106041 -4.5493412 87.699799
-1.8591449 -4.4384999 87.675873
2.6157067 -4.4888325 87.792473
-15.648131 -4.3792105 87.767471
-6.8695807 -4.2988672 87.764198
-6.6822529 -4.3000016 87.721703
-6.4894032 -4.2958879 87.709137
-6.3274498 -4.3058343 87.735268
-6.1885543 -4.3690286 87.799431
