# .PCD v0.7 - Point Cloud Data file format
VERSION 0.7
FIELDS x y z
SIZE 4 4 4
TYPE F F F
COUNT 1 1 1
WIDTH 1505
HEIGHT 1
VIEWPOINT 0 0 0 1 0 0 0
POINTS 1505
DATA ascii
-9.1251955 -3.0892715 13.445541
-12.278299 -2.160315 13.485313
-9.0155354 -2.1643782 13.486242
-7.8479881 -2.1542761 13.418003
-3.7647603 -2.1397467 13.452734
-3.3214386 -2.1392641 13.555649
-3.1376357 -2.1373432 13.504497
-2.6100793 -2.1413713 13.504707
-0.8706125 -2.1410861 13.551769
1.5048741 -2.1166127 13.59137
-8.9497204 -1.6439309 13.439754
-9.1428909 -1.4592332 13.433343
-12.870342 -1.3715917 13.402149
-9.0436039 -1.2819936 13.43803
-12.86758 -0.86701655 13.509417
-12.877972 -0.64367974 13.447496
-9.1442652 -0.72684801 13.501249
10.868993 -0.43875676 13.582178
10.937135 -0.31169409 13.591556
-12.40969 0.63070214 13.491978
22.119722 3.0143518 13.473848
21.226488 3.3322353 13.518302
-13.139218 -2.1654384 13.747195
-12.71908 -2.1265144 13.610485
-10.897327 -2.1617022 13.742486
-9.2761087 -2.1733084 13.714049
-7.4998479 -2.1726823 13.734463
-7.35993 -2.1552515 13.697216
-3.4812112 -2.1484056 13.608209
-2.6559649 -2.1491714 13.719962
0.2010656 -2.1516736 13.660352
-7.566699 -1.1012512 13.771544
-11.741823 0.63248456 13.767155
22.299641 1.8815511 13.792234
-12.644268 -2.1688812 13.834039
-10.2921 -2.1788001 13.869957
-8.9729404 -2.1711483 13.938767
-8.7360487 -2.1844223 13.951496
-8.3037472 -2.1670401 13.86307
-7.2954931 -2.1683478 13.98463
-7.8308296 -1.0237801 13.862184
-7.694304 -1.0521085 13.866484
-7.5921168 -1.0325154 13.830953
-7.8590426 -0.92663562 13.944915
-7.7189231 -0.92933202 13.912553
10.513594 -0.47304869 13.852292
-12.675484 -0.29432514 13.86586
10.837648 -0.3679744 13.958715
-12.756457 0.002094388 13.875008
-12.809031 0.29850796 13.91763
22.270168 2.1485186 13.800069
22.275122 2.6778789 13.867052
21.362078 3.3507278 13.800634
-11.454203 -2.1895289 14.033477
-9.9540825 -2.1906555 14.136289
-8.0600452 -2.1947048 14.17391
-2.6684403 -2.163805 14.009508
1.446527 -2.1424997 14.005505
10.556033 -0.61418217 14.079351
10.546947 -0.46079811 14.081468
21.431829 3.2363663 14.144943
-12.71048 -2.1010058 14.331184
-12.245767 -2.0638561 14.304731
-11.697573 -2.1930957 14.262577
-10.640402 -2.1832159 14.217099
-2.6658318 -2.1823709 14.359809
-0.7364592 -2.1756327 14.395227
0.62778294 -2.1715145 14.259012
-12.243747 -1.9102658 14.329332
10.542601 -0.57827985 14.219915
10.864236 -0.3309643 14.219883
11.173459 -0.18112436 14.286695
9.9247503 0.052194208 14.373745
-13.148775 -2.2111106 14.534382
-9.3746319 -2.2113147 14.594683
-8.0196447 -2.2040026 14.493148
-7.2134123 -2.1947417 14.536709
0.53421074 -2.1702683 14.412743
1.0763742 -2.1719167 14.534611
1.7837648 -2.1744432 14.54553
-12.69044 -1.7066277 14.422122
-12.156968 -1.7040385 14.569908
-12.699455 -1.4758254 14.445944
-12.155235 -1.4698821 14.560122
-12.696123 -1.2357497 14.443432
-12.21419 -1.2267045 14.490866
-12.555727 -1.0018476 14.526945
-12.560533 -0.6919924 14.550581
10.689404 0.37015164 14.432734
11.525859 0.32822418 14.430573
9.7262602 1.1123891 14.495737
22.239756 2.7463176 14.430309
-12.905856 -2.2176037 14.662329
-10.832607 -2.2044652 14.604792
-10.532148 -2.204133 14.648255
-12.111625 -2.1990185 14.676615
-2.4298429 -2.1960418 14.757463
0.033975489 -2.182683 14.670656
0.85826486 -2.1829374 14.79632
-12.499841 -0.85671741 14.60825
-12.678328 -0.54547524 14.647562
21.78075 2.6173444 14.770554
22.040852 2.9446571 14.669626
-13.146364 -2.2301195 14.936707
-11.672989 -2.2166066 14.865925
-13.335352 -2.2298746 15.03236
-10.531791 -2.2351151 15.068748
-9.0732908 -2.2428007 15.175606
-8.9781408 -2.2423842 15.097504
-8.2230377 -2.2191484 15.034555
-0.34994167 -2.2123196 15.138326
2.3044708 -2.203877 15.198566
-9.8125267 -2.0903397 15.170562
0.50572646 -2.1996865 15.093479
0.88870931 -2.1989214 15.058083
-9.8207884 -1.8209846 15.113673
-9.7434235 -1.9613538 15.16136
-9.6130781 -1.6859918 15.099295
-9.6175976 -1.4775348 15.09631
-9.6170225 -1.2040362 15.18182
-7.6750517 -1.0714568 15.043518
-7.7354474 -0.94226348 15.107324
-9.7691689 -0.78956175 15.116948
-3.8961382 -0.054903097 15.174485
-2.9062047 -0.036431015 15.19671
-0.10251622 -0.043064427 15.167224
-3.9835041 0.10990631 15.161476
-3.0506628 0.11166713 15.161137
-2.8010778 0.14698577 15.153296
-2.4038074 0.11187749 15.178663
-2.2928987 0.030220821 15.186323
-1.4589489 0.18483989 15.19856
-1.3589687 0.12404442 15.145988
-0.2690886 0.075277768 15.177226
-0.19030726 0.0284089 15.198422
1.959047 0.15095854 15.170447
-11.290432 0.29088533 15.192703
-3.8905814 0.26793629 15.174908
-3.1773109 0.24291834 15.18668
-2.6858661 0.30216244 15.159028
-0.63479209 0.32690501 15.19733
-0.27092734 0.28976926 15.193893
2.1135628 0.32599837 15.193575
-12.637151 0.53405726 15.097676
-12.488101 0.55104876 15.134528
-4.2601433 0.49042562 15.121657
-4.1414051 0.50269747 15.124262
-3.5310035 0.48189381 15.18793
-2.6866965 0.43959129 15.173071
-0.26505607 0.58950967 15.134865
0.91014385 0.47001681 15.183222
-13.835249 -2.2557464 15.285211
-12.291492 -2.2336962 15.259798
-11.813065 -2.2406988 15.320894
-10.737148 -2.244122 15.354374
-9.3836479 -2.2619524 15.331973
-7.4980655 -2.2421885 15.286942
-7.3055935 -2.2265086 15.221081
-2.4023733 -2.2450094 15.324165
-2.1408739 -2.2253919 15.383167
0.043650482 -0.022887254 15.260945
-3.012418 0.10545176 15.202418
-2.8950045 0.13079697 15.23194
-2.3588736 0.047264408 15.215763
-1.8954422 0.10522121 15.274209
-1.7895259 0.15118486 15.222535
-1.5527959 0.073675357 15.239516
-0.56159675 0.097051024 15.209144
0.062659614 0.1794333 15.294527
0.95220172 0.12723067 15.200191
1.0495005 0.12358849 15.203107
1.3790731 0.031033695 15.230675
1.4786417 0.087060109 15.223534
-4.056572 0.35428494 15.214152
-3.0902238 0.24759454 15.20402
-2.8516357 0.3540763 15.209011
-1.9065574 0.28560477 15.23737
-1.565317 0.31484368 15.224606
-0.66341597 0.24345696 15.218748
-0.26681557 0.31166762 15.211281
-0.18482302 0.39942479 15.202029
0.21902575 0.2453317 15.213397
1.5027245 0.25855815 15.235387
1.7642578 0.28860116 15.247568
-12.452294 0.48594937 15.219905
-3.6420727 0.45776492 15.232198
-3.4337096 0.48748612 15.250266
-2.6224368 0.47007763 15.214083
-2.1401806 0.46768391 15.222362
-1.6840216 0.44159779 15.239339
-0.7614947 0.45650834 15.223404
-0.31481379 0.44780698 15.213392
0.28550136 0.45810288 15.229558
1.5540456 0.43566176 15.258083
1.9715292 0.46281797 15.256294
-13.381639 -2.2680817 15.582603
-12.829841 -2.2475605 15.448634
-12.284153 -2.2488413 15.547832
-11.497079 -2.2516778 15.513594
-10.510999 -2.2748399 15.448941
-8.4243212 -2.2568791 15.401869
-8.0896969 -2.2566791 15.497495
-6.7316589 -2.2488368 15.49809
-2.6018968 -2.260453 15.58915
-8.0100546 0.50810498 15.457174
-13.052366 -2.2785494 15.653358
-12.451675 -2.2680798 15.781473
-11.967112 -2.2603648 15.665173
-10.324272 -2.2733102 15.630898
-9.4408865 -2.2734632 15.738026
-7.873364 -2.2621622 15.746368
-7.1233439 -2.2655163 15.787824
-2.6947281 -2.2769306 15.763299
-0.9968735 -2.2456646 15.792447
0.62588179 -2.2324419 15.797633
-12.933336 -2.2716641 15.900414
-12.334137 -2.2755866 15.893972
-12.093033 -2.2646284 15.954637
-10.234124 -2.2405491 15.970732
-8.0239143 -2.2804847 15.937444
-6.7374916 -2.2591984 15.945384
-10.129249 -2.0108674 15.932169
-10.018011 -1.9031312 15.876694
-10.017335 -1.6051511 15.932462
-10.328063 -1.3811357 15.864079
-9.9599094 -1.2014427 15.965323
-10.390579 -1.1480477 15.882533
-10.02972 -1.0843852 15.948318
-10.090663 -0.97148621 15.926994
1.4880762 0.52717733 15.995947
-13.393202 -2.2921252 16.000797
-11.490917 -2.2878587 16.016079
-10.731501 -2.291436 16.173098
-8.1523819 -2.2854156 16.144135
-6.6962476 -2.2682762 16.106253
1.7784204 -2.2401166 16.050188
-12.097346 -0.24801892 16.172207
-12.09687 0.097071648 16.176552
-12.932435 -2.2892356 16.210308
-12.649179 -2.2772088 16.248669
-11.715658 -2.304028 16.326675
-11.189393 -2.3018727 16.357441
-10.649471 -2.3052912 16.371254
-8.3537846 -2.2812166 16.245327
-2.3502166 -2.2760785 16.354832
-0.48215875 -2.2698472 16.397951
-0.36487293 -2.2704864 16.353443
0.77700007 -2.2491591 16.23296
-0.97767884 -0.77417099 16.356556
-12.098878 -0.073020458 16.206108
-12.54574 -2.3023119 16.485586
-11.865849 -2.3178031 16.53948
-8.5344849 -2.3079708 16.473042
-1.5037851 -2.2748713 16.423746
-13.637525 -2.2923329 16.668089
-11.575754 -2.3192389 16.680222
-2.3589971 -2.2868402 16.7356
-0.23998067 -2.2832971 16.619232
7.2546458 -1.3824564 16.635162
7.6880512 -1.219177 16.620789
7.8627567 0.45387948 16.73624
-13.23386 -2.3326578 16.832199
-12.906706 -2.3307309 16.913721
-12.658058 -2.3242562 16.879206
-12.305311 -2.3198256 16.830364
-10.424269 -2.3370605 16.848999
0.1287583 -2.3018739 16.91201
1.5597308 -2.2888262 16.836681
2.1400898 -2.2576485 16.800579
2.2513473 -2.2801557 16.925531
-10.828665 -1.2900474 16.9748
-10.349115 -1.2774826 16.937529
-10.41681 -1.1010995 16.967064
-3.3951211 0.163445 16.849062
-13.619004 -2.3249507 17.195518
-13.332181 -2.3232231 17.144056
-13.05346 -2.3277807 17.040518
-11.513287 -2.3424397 17.00379
-10.722325 -2.2847824 17.162231
-10.570445 -2.3417015 17.139202
-7.0323577 -2.3236902 17.044495
-2.4463484 -2.3104432 17.057304
1.5496829 -2.2966828 17.117573
2.1193089 -2.2983785 17.093094
-10.779921 -1.109266 17.00238
-10.650048 -0.97543639 17.068157
-13.242624 -2.3371787 17.223593
-7.8788319 -2.3268256 17.237276
-7.111784 -2.3309436 17.367548
-2.3409452 -2.3388116 17.336634
-3.6188412 -0.041422427 17.375734
-3.629096 0.33966595 17.392277
-3.7303591 0.52508724 17.39308
-13.813512 -2.3640096 17.475355
-13.034023 -2.3440857 17.586962
-10.317945 -2.3686295 17.585953
-7.9378977 -2.3370619 17.514629
-2.676053 -2.3396492 17.457748
-2.2108495 -2.3283885 17.410835
0.67673182 -2.3229713 17.467955
1.2571084 -2.3213418 17.429951
-12.152992 -1.298131 17.469
-12.166908 -1.0223325 17.525146
-3.989233 0.13441074 17.485847
-8.0061531 0.46373516 17.434908
-13.822548 -2.3495975 17.673048
-13.203204 -2.3596163 17.698944
-13.149423 -2.368757 17.625568
-11.295408 -2.3709631 17.611149
-10.845387 -2.2465401 17.778679
-0.64522755 -2.3324909 17.692913
0.38074723 -2.3355777 17.767483
1.1415496 -2.3110185 17.69994
-10.81691 -2.1116359 17.767746
-12.832928 -2.3798642 17.963802
-7.9517679 -2.3504431 17.879475
-10.949509 -2.1154523 17.818619
-10.978201 -1.9431372 17.859392
-10.695538 -1.8633542 17.884468
-10.982464 -1.7042079 17.828907
-10.61619 -2.4041193 18.179626
-12.186497 -2.3838503 18.064459
-10.023619 -2.3852887 18.146744
-2.7009292 -2.3664351 18.155651
-1.9858776 -2.3573592 18.131886
-12.866437 0.37997815 18.190702
-12.786113 0.36525345 18.185513
-12.431772 0.34136158 18.045982
-12.08341 0.39613774 18.121346
-13.906467 0.41474542 18.078075
-13.312689 -2.3873029 18.235359
-7.9661193 -2.3621588 18.259954
-2.0401287 -2.3690619 18.351948
1.5696996 -2.3478293 18.396412
-13.609632 -0.22682524 18.349445
-13.356308 -0.22166595 18.322369
-13.175144 -0.20347309 18.283823
-12.916548 -0.22340512 18.284306
-12.694091 -0.21677327 18.289024
-12.83422 -0.049139977 18.289669
-12.656981 -0.093533486 18.300543
-12.57321 -0.1322107 18.270977
-12.648833 0.12209651 18.301723
-12.513971 0.11077814 18.271385
-13.762656 0.28254586 18.290585
-13.448084 0.39111951 18.317642
-12.991371 0.34715393 18.221359
-12.669032 0.35184106 18.320566
-12.315991 0.30615875 18.245853
-12.233509 -2.4104626 18.485582
-11.157599 -2.4073133 18.56296
-8.7170296 -2.4062219 18.500805
-13.071157 -2.3941715 18.464146
-2.2100801 -2.3815856 18.54641
-0.76557535 -2.3798065 18.520962
2.341377 -2.3588746 18.559729
-11.887666 0.32786083 18.407593
-12.076539 -2.4152448 18.64822
-8.7523966 -2.4197917 18.733557
-12.850449 -2.3956676 18.795725
-12.766981 -2.3984113 18.612957
-2.4523952 -2.3883014 18.794119
-2.3816481 -2.3779624 18.746521
-0.7547434 -2.3855357 18.791
2.4053133 -2.3659172 18.636003
-13.360585 -2.4166861 18.965286
-12.958897 -2.4234946 18.85601
-10.830043 -2.4245355 18.987625
-7.7316747 -2.416297 18.878338
-2.4599893 -2.3966587 18.931122
-2.3774159 -2.391264 18.87307
0.14890438 -2.3954053 18.907124
0.47791314 -2.3907743 18.849136
-13.516283 -2.4383731 19.168327
-9.8921299 -2.4372301 19.084953
-2.0362899 -2.4137254 19.036346
1.541707 -2.39309 19.059992
-13.413819 -2.4404442 19.296936
-13.096977 -2.4505532 19.25025
-12.947764 -2.4357243 19.313461
-12.302771 -2.4477932 19.325432
-10.71971 -1.7138308 19.345507
-10.740278 -1.5880399 19.319841
-10.651439 -1.3054566 19.334192
-10.831785 -1.0680686 19.357151
1.4577579 0.39550054 19.286119
-2.3895116 -2.4211366 19.435331
-1.6980296 -2.4295192 19.436329
0.40426514 -2.4227147 19.564503
1.2466084 -2.409246 19.434971
-10.737344 -1.8691522 19.46771
-10.896651 -1.6746244 19.453154
-10.944173 -1.4272664 19.451138
-10.851711 -1.2465532 19.456673
-10.751631 -1.3813983 19.445017
-10.894193 -0.99073136 19.501053
-13.13604 -2.4507647 19.712448
-12.406607 -2.4596913 19.674139
-1.8761947 -2.4356363 19.704292
0.84550178 -2.408082 19.633902
9.1888924 -1.3808813 19.705868
10.873231 -0.67150456 19.674326
-12.992479 -2.4614 19.837282
-7.3666625 -2.4579482 19.839016
1.9565316 -2.4264374 19.820738
9.2027998 -0.54077685 19.858942
10.878837 -0.4932074 19.902672
9.7416086 -0.36210123 19.937925
11.13651 -0.32554364 19.891171
9.7023144 -0.015202731 19.893936
11.332857 -0.13841712 19.935051
9.3354368 0.14240021 19.877041
-13.633179 -2.475975 20.108509
-12.642759 -2.4788685 20.041779
-6.9491239 -2.4753239 20.187557
-2.399225 -2.4513273 20.173792
-1.7791494 -2.465219 20.071468
-0.24744484 -2.4421005 20.083538
0.80398619 -2.4336555 20.04612
2.7248847 -2.4339681 20.109642
-10.733816 -1.6692815 20.081211
-10.69355 -1.4744459 20.093164
-10.686579 -1.2887441 20.122225
-13.290326 -2.4977829 20.278376
-11.507892 -2.5008204 20.297041
-10.696545 -2.4820333 20.220673
-10.895026 -1.7606153 20.256937
-10.899795 -1.3621311 20.374035
-13.313676 -2.5087199 20.586412
-7.0956202 -2.4998453 20.582977
-2.4173486 -2.4691148 20.477276
-2.399616 -2.5079126 20.497602
-0.75534624 -0.97019172 20.525278
-13.55792 -2.5139353 20.745712
-13.117708 -2.5114341 20.608047
-12.102505 -2.5170193 20.654251
-10.770369 -2.506866 20.726877
-9.0439339 -2.5046487 20.637527
-7.2868199 -2.4962859 20.758099
-6.3314886 -2.4886222 20.674398
-6.0155125 -2.4970219 20.691956
1.7642545 -2.4765105 20.675566
-12.822554 -0.22873092 20.705826
-6.955431 -0.21841949 20.76169
-12.818998 -0.094084755 20.704678
-7.0180788 -0.1276795 20.788517
-6.937355 -0.12664065 20.775572
-7.2668543 0.037744164 20.755756
0.73777008 0.31911957 20.620783
-9.057765 0.71213913 20.606382
-13.406269 -2.5233326 20.871826
-12.142057 -2.5345404 20.934431
-10.72458 -2.5298107 20.953938
-8.1584034 -2.5234151 20.926569
-7.5536079 -2.5067832 20.993507
-7.1825175 -2.5022612 20.86545
-2.8257585 -2.497967 20.975235
2.0962877 -2.4842496 20.948883
2.5454111 -2.4684474 20.968105
-7.9613743 -1.3502834 20.973787
-12.916741 -0.23198116 20.915676
-7.3058977 -0.25687766 20.858622
-7.0644369 -0.23588294 20.893749
-6.9554515 -0.24822219 20.883047
-12.89094 -0.098792411 20.922844
-7.0589318 -0.10794705 20.88674
-6.9617796 -0.08674413 20.871815
-7.2710886 0.017099738 20.830984
-7.071631 0.025811275 20.879183
-6.9664745 0.017771443 20.835634
-8.9553919 0.77485371 20.958366
-8.4018917 0.61688101 20.973778
-5.990314 -2.503166 21.035891
-1.5045437 -2.4989147 21.0047
2.7170413 -2.4791155 21.11277
-0.82312083 -1.826993 21.168886
-0.73806971 -1.6896681 21.132776
-0.6931631 -1.4961641 21.16275
-0.58966136 -1.4181678 21.132225
-0.87787533 -1.309309 21.084507
-0.56179225 -1.256706 21.054064
-0.74168169 -1.1645896 21.094254
-0.61631787 -0.99380976 21.109455
-1.0123335 0.28417993 21.116447
-9.1556797 0.77472317 21.021931
-8.4835558 0.77174342 21.047922
-8.575161 0.94058359 21.054577
-12.899988 -2.5469766 21.292475
-6.8297138 -2.5327239 21.399063
-5.5512877 -2.5149951 21.229183
-2.0898337 -2.5122414 21.237997
-0.8051275 -2.0025864 21.206102
-2.597739 0.29718196 21.226635
-13.07024 -2.5536168 21.478966
-9.2345839 -2.5486975 21.459591
-8.6505547 -2.5404348 21.535725
-6.8907547 -2.51982 21.529528
-5.6377888 -2.5272102 21.565395
-11.289647 -2.568327 21.78867
-8.2795582 -2.5486832 21.62212
-7.1500893 -2.5422387 21.743349
-3.2325842 -2.531075 21.729126
-3.0037298 -2.5133343 21.76964
-2.3826227 -2.5154355 21.622871
1.5070316 -2.5238976 21.783102
2.3762724 -2.5081275 21.629801
2.8869038 -2.4977241 21.715664
1.4716873 0.22482729 21.682638
-13.042693 -2.5723808 21.86974
-11.787385 -2.5682402 21.847668
-7.4742131 -2.5451441 21.98028
-2.9440231 -2.5352235 21.845741
0.14697854 -2.5421553 21.982864
-13.048491 -2.5775552 22.002354
-12.50041 -2.588002 22.111013
-12.180101 -2.5822725 22.006384
-10.955918 -2.5801864 22.027061
-8.7076769 -2.5697145 22.140108
-8.4893017 -2.5655768 22.095819
-7.870677 -2.5614853 22.098484
-2.5105929 -2.5328617 22.088148
-10.674822 -3.2492223 22.313231
-10.670846 -3.0048156 22.369757
-13.118169 -2.5872941 22.272041
-12.799361 -2.5880177 22.257759
-8.7781239 -2.5705914 22.297798
-7.6945748 -2.56674 22.27212
-3.2129905 -2.5565648 22.348841
-2.4227195 -2.5523005 22.394627
-0.8132621 -2.5473704 22.245638
1.430686 -2.5480046 22.300591
-10.897754 -1.475745 22.253805
-10.680326 -1.5675802 22.248045
-10.529423 -1.4803345 22.350555
-10.928589 -1.347331 22.288376
-10.557579 -1.3493302 22.345036
-11.713053 -2.6127591 22.571609
-10.561103 -2.771069 22.453606
-8.2263031 -2.5798113 22.504002
0.25243002 -2.5505376 22.421684
2.9353099 -2.551569 22.437138
-10.576906 -1.7705148 22.46011
-10.584742 -1.518528 22.52758
-10.581329 -1.2786759 22.465221
-10.588798 -1.025629 22.529509
-10.585242 -0.78433239 22.465424
-10.578671 -0.5363422 22.499649
-11.204236 -2.6033943 22.608414
-9.4159107 -2.6097007 22.669432
-2.8788099 -2.5818739 22.682962
-12.737338 0.13784504 22.742081
0.73656464 0.20498037 22.701729
-12.783867 -2.6254854 22.944548
-12.251507 -2.6235456 22.935537
-11.961271 -2.6039014 22.94401
-10.759124 -2.1116271 22.994892
-13.276224 -2.6383452 23.178843
-13.016302 -2.6176372 23.019922
-12.568169 -2.6263733 23.055771
-8.6313057 -2.6085663 23.049408
-8.2881775 -2.6162891 23.15584
-2.4401495 -2.6065218 23.14822
-2.3935244 -2.6004891 23.094774
-3.1656835 -2.5934932 23.022963
-0.63239539 -2.5918975 23.003002
0.97740293 -2.5817256 23.00979
2.573277 -2.5815847 23.161638
-10.738569 -2.0404682 23.058418
-10.745965 -1.9083624 23.038607
-10.730222 -1.6955938 23.042246
-10.862419 -1.5327652 23.083902
-10.481726 -1.4859059 23.091217
-10.512851 -1.3648447 23.126097
-10.570824 -1.1136346 23.199726
-8.6621933 -2.6210999 23.376139
-7.7340536 -2.6115003 23.308411
-2.8768072 -2.6081891 23.236568
-1.6684574 -2.6130385 23.337841
2.1878939 -2.5809941 23.317154
-8.2364378 0.13241851 23.221777
-13.189283 -2.6493435 23.541502
-10.50656 -2.6412234 23.459393
-9.4838991 -2.6255133 23.436991
-9.1610823 -2.6397986 23.51935
-8.4030037 -2.6320889 23.524748
-2.9662836 -2.6125696 23.492544
-0.67380089 -1.5300788 23.53289
-0.61222875 -1.3470116 23.511604
-0.50251728 -1.320222 23.516087
-0.43587226 -1.1070836 23.549135
-0.39804476 -1.0817366 23.530687
-12.818431 0.096065402 23.421581
0.85616899 0.17131764 23.57542
-12.787824 -2.672286 23.708725
-12.555323 -2.6590438 23.693819
-11.870302 -2.6587605 23.73485
-9.59091 -2.6429176 23.696421
-8.8540373 -2.6433311 23.764677
-8.4793673 -2.6391444 23.686438
-7.8099723 -2.6464117 23.754913
-2.2517979 -2.6221664 23.647865
0.87972569 -2.6033068 23.651676
7.9380994 -0.93619263 23.676022
8.0693197 -0.81946021 23.669374
7.8871703 -0.48609853 23.698418
9.4443607 -0.51385921 23.736221
7.8790746 -0.3748973 23.707827
-0.28924638 0.16109425 23.630804
-13.862986 -2.6532197 23.918936
-3.2957325 -2.6473966 23.832588
-2.996515 -2.6507392 23.833113
-2.5467017 -2.6407971 23.969734
-2.1645741 -2.6399968 23.887291
-0.098210208 -2.6502037 23.919596
0.83596408 -2.6438813 23.876822
-8.1261063 -1.4924314 23.881737
12.296942 -1.336586 23.812195
11.943165 -1.1028999 23.817244
11.966045 -0.87888479 23.890591
-8.6819572 0.13074815 23.865498
1.4619408 0.11482942 23.949841
-13.165285 -2.6888018 24.176228
-12.801856 -2.6703372 24.047251
-8.8168268 -2.6516314 24.001369
-7.8903456 -2.6673679 24.159346
1.8817853 -2.6378632 24.068277
-0.64241177 -1.5000933 24.145733
-0.59451652 -1.4023465 24.155382
-0.39840025 -1.0557413 24.197525
-13.004 -2.6955743 24.399256
-10.49964 -2.6851935 24.396309
-9.0817928 -2.6746998 24.377693
-8.1120605 -2.671628 24.289104
0.58457589 -2.6525476 24.341381
-0.39009959 -1.1408883 24.208267
-5.8623767 -4.4337502 24.427744
-13.251028 -2.690078 24.507971
-13.08474 -2.698297 24.547451
-12.947553 -2.6898303 24.441139
-12.084381 -2.6913381 24.552387
-2.1251545 -2.6855364 24.549385
-1.765129 -2.6679587 24.542103
-1.2817688 -2.6757631 24.565609
-8.9371004 -2.6844459 24.752953
-7.5018673 -2.6862462 24.730843
-2.1862736 -2.6774054 24.702793
-1.9084079 -2.6828859 24.698727
-1.6487001 -2.6864665 24.713701
-1.4800323 -2.6828966 24.76449
-0.25817391 -2.682677 24.690567
2.0863519 -2.6528924 24.656981
2.5501831 -2.6695113 24.754612
10.032951 -0.56558442 24.798157
-0.88664317 0.10799032 24.758451
1.126597 0.1195088 24.72653
1.2139754 0.10536945 24.7204
-13.802986 -2.7319012 24.887508
-13.41856 -2.7261817 24.920216
-7.824718 -2.70471 24.951834
-2.3826096 -2.6943529 24.902636
-0.63335472 -2.688725 24.889023
2.8496735 -2.6623995 24.824852
10.036101 -1.197358 24.869894
10.01269 -0.88139749 24.807777
10.025122 -0.69365942 24.806469
10.053603 -0.22904932 24.963837
-0.74402624 0.096772969 24.837273
-12.25064 -2.7089062 25.050137
-8.5568142 -2.7114511 25.011501
-2.4567242 -2.6928947 25.008371
0.039130107 -2.697083 25.151367
2.7334819 -2.6709313 25.079247
-5.3142238 -0.34803477 25.119287
-11.788891 -2.7166507 25.21769
-10.03801 -2.7262211 25.364948
-7.7136173 -2.7089467 25.26058
-7.3270502 -2.7100277 25.321077
-1.5454504 -2.7151353 25.338478
1.0927818 -2.6987686 25.287567
10.011611 -0.95012748 25.251343
-5.308692 -0.086831376 25.206142
-12.651855 0.05771327 25.342278
-8.9123182 0.059042931 25.264877
-7.9828348 0.059419155 25.326599
-13.757257 -2.7383685 25.453657
-12.954028 -2.7333894 25.400198
-8.3429098 -2.7175856 25.405106
-5.8963451 -2.7277555 25.581535
-2.4072211 -2.7200747 25.515799
1.4785197 -2.7014465 25.486683
2.8469682 -2.6909752 25.458258
-12.469352 -2.7413731 25.6415
-8.7037964 -2.7421706 25.722864
-2.4598029 -2.7177 25.772259
-0.14181979 -2.7295849 25.672485
2.9889655 -2.6981556 25.658525
-2.408679 0.050076842 25.783344
-13.290777 -2.7668242 25.894342
-11.968287 -2.7463648 25.920467
-11.27411 -2.7563641 25.800741
-9.0636597 -2.7513006 25.914045
-7.7173042 -2.734683 25.881149
-7.4075384 -2.7433147 25.881302
-5.7179313 -2.7359123 25.866301
-1.5352192 -2.7456863 25.941557
-0.96573299 0.05009079 25.825481
1.0107895 0.044568896 25.969234
-13.085686 -2.7663252 26.171429
-8.6459007 -2.7541404 26.018215
-7.6343632 -2.7497575 26.026003
-6.7450671 -2.7481999 26.199001
-2.3042567 -2.7453594 26.153446
1.0295687 -2.7242181 26.079901
2.1165287 -2.7077215 26.160767
2.5606151 -2.7184477 26.146017
2.6068757 -2.7276075 26.050407
3.0266907 -2.7052066 26.054098
-8.1037455 -1.4980404 26.148691
9.7696991 -0.71891999 26.122816
-12.786176 0.044529915 26.083433
-1.1066272 0.040528238 26.008289
-10.050611 -2.7783909 26.325462
-8.4961853 -2.7531698 26.205038
-7.5892954 -2.7625751 26.332977
-13.34584 -2.7733381 26.42061
-8.424017 -2.7764254 26.458612
-1.5870686 -0.3647517 26.595737
-8.9587059 -0.0041196346 26.54694
-8.5571508 -0.0076922178 26.546383
-13.054688 -2.8250985 26.768995
-12.544225 -2.7998247 26.616419
-9.4287319 -2.7936409 26.742657
-1.7017467 -2.776932 26.605978
-10.906583 0.007760644 26.689274
-1.4150769 0.013373852 26.692448
-0.17864123 0.0034594536 26.67083
-13.485489 -2.8041067 26.942841
-12.901747 -2.8014665 26.976772
-12.709699 -2.8192434 26.908924
-10.388177 -2.8121424 26.96273
-10.607183 -2.7950618 26.829618
-8.4902983 -2.7866936 26.843979
-0.022746027 -2.772295 26.867128
9.7213087 -0.72284472 26.918634
-13.995015 -2.8029079 27.119402
-13.263236 -2.8159804 27.116846
-13.126116 -2.8056021 27.125851
-12.996073 -2.8382711 27.193352
-10.797361 -2.8092604 27.032719
-13.264042 -2.7909927 27.195122
-2.8485727 -2.7927384 27.153603
-1.3436072 -2.7917314 27.105547
-8.060154 -1.6271837 27.07576
-1.9559393 -0.70329446 27.035473
9.7200413 -0.60002232 27.156414
-2.3362772 -0.015903592 27.031246
-12.379555 -2.8191273 27.29978
-3.0408223 -2.8079982 27.356438
0.36957502 -2.8025062 27.319027
-7.2325439 -2.7977109 27.208344
-3.1014209 -2.7909377 27.217323
-2.6103878 -2.7977023 27.232937
0.13625143 -2.7857413 27.272526
-7.8374786 -0.038203239 27.393385
-4.0204024 -0.03612113 27.375935
-3.8884027 -0.022116244 27.30127
-1.0060683 -0.033883929 27.225571
0.86459535 -0.023814857 27.225662
-12.603674 -2.8486083 27.516277
-12.020447 -2.8316154 27.509346
-10.049526 -2.8322904 27.482355
-8.6621046 -2.8202767 27.4604
-3.6989172 -2.8159976 27.572378
1.4926125 -2.7921093 27.473642
9.7555399 -0.6210705 27.497395
9.7161922 -0.42794657 27.548075
-7.8738694 -0.23722301 27.46735
-7.6866837 -0.23630686 27.46933
-3.6819355 -0.23574124 27.481207
-3.448616 -0.22474952 27.474157
9.6826696 -0.2973637 27.586472
-7.8856177 -0.13084954 27.487358
-7.6864305 -0.1102163 27.493011
-3.6958864 -0.13623971 27.517122
-3.4750016 -0.13610837 27.479021
-3.3080931 -0.039503157 27.537626
-7.7475739 0.0357638 27.485332
-3.628211 0.0066794157 27.439896
-11.355898 -2.8336735 27.758825
-8.2725163 -2.8239026 27.707895
-2.9233012 -2.8219101 27.67905
0.4207696 -2.803072 27.707197
1.5457954 -2.8132281 27.688438
-3.3476176 -0.049243689 27.634155
-1.4936749 -0.047730625 27.795937
0.19783226 -0.053814352 27.687618
-9.0720892 -2.8458328 27.998421
-0.031608276 -2.8232896 27.88097
1.655779 -2.8315477 27.99852
-12.810699 -0.11447489 27.819502
-15.236179 -5.4312801 28.095613
-13.450195 -2.8448558 28.016483
-12.070724 -2.844738 28.159794
-3.7916408 -2.8395042 28.045244
-3.5941472 -2.842711 28.058968
-3.0650167 -2.8392124 28.112896
-1.2167138 -2.8422155 28.173683
1.0510333 -2.8322504 28.057611
-12.015312 -2.8535814 28.351721
-8.9169254 -2.8506498 28.380877
-0.1870538 -2.8532295 28.210487
-8.0983372 -0.10203683 28.362566
-13.737785 -2.8654351 28.544342
-12.37124 -2.8589659 28.459616
-10.138252 -2.8627598 28.496609
7.2013731 -0.82412565 28.422758
7.2138267 -0.72000241 28.433174
9.6553669 -0.5386228 28.502218
9.6812868 -0.39838302 28.508678
-12.864484 -0.12488067 28.534006
2.1458638 -0.075845897 28.483557
-10.347559 -2.8834732 28.668245
-8.6881313 -2.8750548 28.79278
-7.8271799 -2.857029 28.675196
-7.7641912 -2.8672199 28.611057
-11.422016 -0.068923235 28.75009
-15.169099 -5.2318611 28.813848
-15.162905 -4.8612413 28.91037
-12.559246 -2.8870792 28.853172
-9.9920254 -2.8966725 28.954336
-8.4128838 -2.8851824 28.854879
-8.0439358 -2.8738062 28.99091
-3.7168779 -2.8817015 28.931828
1.4699539 -2.8672509 28.937433
9.6640854 -0.6676904 28.826054
-12.540419 -0.081145525 28.889774
-10.37884 -0.093370438 28.929819
0.65022618 -0.088055134 28.973017
-12.817122 -2.8942943 29.175175
-8.6127892 -2.8928704 29.178854
-7.8131127 -2.8800344 29.053188
-3.8157916 -2.8835776 29.051331
-1.34867 -2.8881531 29.05555
0.055993021 -2.8863876 29.184975
-8.0134115 -1.674948 29.133244
-8.0378084 -1.5942222 29.150663
-8.6827354 -0.11003065 29.086065
-13.953062 -2.9007487 29.367943
-13.22979 -2.8945932 29.324018
-12.953783 -2.9035466 29.294647
-12.755936 -2.9033418 29.322868
-12.366574 -2.9028792 29.3291
-10.706377 -2.8972764 29.263313
-7.6270223 -2.9102325 29.336027
0.20640904 -2.8843694 29.204437
-4.4792414 -3.5303054 29.428837
-13.654911 -2.9017229 29.463438
-13.275939 -2.8990636 29.502272
-12.361852 -2.9050012 29.484509
-12.005092 -2.9126027 29.412098
-7.8401051 -2.9077759 29.483936
-7.7403669 -2.9066963 29.554289
-7.485043 -2.9143867 29.440647
-4.3282223 -2.9053769 29.428576
-4.0759459 -2.9088004 29.533394
-3.5030184 -2.8995695 29.526999
-2.5453925 -2.905479 29.589722
-11.347276 -0.14244545 29.567394
-8.914525 -0.14951658 29.522625
-8.7773485 -0.11640561 29.527596
-14.13752 -2.9005308 29.751513
-12.960329 -2.913342 29.666016
-12.062746 -2.9261651 29.740679
-11.556528 -2.9183898 29.65517
-9.1693983 -2.9111595 29.655056
-8.6280499 -2.9099271 29.627821
-8.1611023 -2.9087424 29.651182
-11.74285 -2.9312179 29.950922
-2.694762 -2.9174294 29.867592
-8.8406181 -0.14052141 29.972565
-8.0529528 -0.14660835 29.90423
1.3706703 -0.11951399 29.918411
-12.687254 -2.9514015 30.112875
-8.4861059 -2.9405122 30.097994
-7.8849797 -2.9172134 30.055164
-7.3778276 -2.9306779 30.144104
-2.7630596 -2.9345157 30.0961
-8.1017752 -1.7200842 30.140482
-5.3775668 -1.4802241 30.015369
-5.3820958 -1.1586472 30.019829
-3.4619062 -0.63627863 30.181688
-5.2681561 -0.4614448 30.097574
-5.1096454 -0.45259595 30.116234
-8.7512722 -0.14805043 30.038931
-1.4921292 -0.1671418 30.082575
-0.95535958 -0.16775906 30.143776
-12.471609 -2.9415355 30.229597
-9.8724203 -2.951643 30.238434
-7.274518 -2.94661 30.288502
-7.1174288 -2.9492776 30.393505
-6.1688142 -2.9359477 30.325535
-5.8691955 -2.9481869 30.346008
-2.202002 -2.9411917 30.221437
-1.5270234 -0.087482736 30.203724
-13.668411 -2.94925 30.523146
-13.379108 -2.9521074 30.501993
-12.079397 -2.9654198 30.59691
-11.395208 -2.9643559 30.488947
-10.972171 -2.9688959 30.574371
-7.9159966 -2.9516242 30.511166
-6.2663054 -2.9506803 30.508921
-2.5273421 -2.9501002 30.405224
1.8324307 -0.63942337 30.435982
1.487927 -0.48086458 30.409716
1.7232836 -0.47692734 30.445827
-12.733135 -0.16492641 30.530762
1.3523645 -0.16658962 30.422859
-10.000091 -2.9749525 30.7875
-2.5298078 -2.9685183 30.679338
-4.4149146 -1.7242843 30.694529
-11.982814 -2.9881415 30.985048
-8.4817381 -2.9767089 30.892382
-7.0043578 -2.9565651 30.867462
-5.9192462 -2.9615021 30.984585
-2.5432115 -2.9631772 30.813049
1.3220391 -2.9642131 30.897322
-1.3558373 -1.5869206 30.941593
-1.4733381 -1.3766303 30.906652
-1.4638469 -1.174736 30.930897
2.006803 -0.1946786 30.836578
-13.298967 -2.9888577 31.110119
-11.39356 -2.9894359 31.083448
-7.017024 -2.9867535 31.124189
-1.337779 -2.9760079 31.159679
-4.3740387 -1.904582 31.195686
-13.121466 -3.0013974 31.257
-2.5902638 -3.0041823 31.325541
-8.0880079 -2.9948554 31.336189
-0.53307557 -2.9973238 31.356071
-8.6409912 -0.21840906 31.319885
-8.0533791 -0.20256877 31.345505
-2.6895039 -0.233854 31.351471
-1.2413167 -0.23818362 31.350021
-10.342034 -3.0040944 31.522696
-2.9649127 -3.0077314 31.538246
0.54961926 -3.0021625 31.545238
-13.254142 -2.9880762 31.46419
-2.9034274 -2.9948821 31.550854
-0.50034368 -0.23391837 31.401196
-11.492485 -3.0174141 31.692434
-8.9657688 -3.0165067 31.783546
-2.9051106 -3.0266566 31.711655
-1.5810992 -3.0110126 31.71587
-4.6034074 -2.195786 31.775684
-13.968215 -3.0255735 31.820158
-13.32457 -3.0410271 31.981693
-12.895231 -3.0045986 31.801195
1.6556808 -3.0050116 31.80435
-4.4365153 -1.856876 31.820444
1.5455427 -0.25511277 31.86146
-13.683029 -3.0410595 32.142578
-13.083311 -3.0456305 32.004406
-11.408504 -3.0283012 32.014217
-11.338572 -3.0242319 32.09626
-2.8752346 -3.0131814 32.006561
-1.7955396 -3.0268974 32.109699
0.57887071 -3.0248742 32.114132
-13.620968 -3.0555425 32.394817
-7.7659545 -3.0395403 32.297554
1.045015 -3.0161867 32.230629
-5.9723716 -4.6024175 32.51799
-6.0739312 -4.3399329 32.404331
-13.28272 -3.0575228 32.49295
-8.106144 -3.0447211 32.47644
-2.9693201 -3.0419769 32.595757
-2.7316823 -3.0397983 32.584969
-13.888728 -3.0737767 32.752357
-13.649191 -3.0648279 32.664814
-12.070523 -3.0680065 32.699326
-1.9278792 -3.0442538 32.634186
1.7500077 -3.0326381 32.610821
-10.309738 -3.076622 32.933392
-7.7235136 -3.0625911 32.838123
-0.45272785 -3.0607095 32.955894
-10.512103 -3.0785871 33.168556
-8.9761429 -3.0708456 33.071651
-2.9260554 -3.0666084 33.046822
-1.6764219 -3.0731418 33.174343
-13.511334 -3.101994 33.230026
-13.369038 -3.0894809 33.25666
-12.87594 -3.0851583 33.265816
-12.529469 -3.0896621 33.394306
-11.025953 -3.0933518 33.347881
-8.4380817 -3.0898447 33.387825
-3.0191615 -3.1043143 33.231915
-2.8270624 -3.0733082 33.381794
-10.209229 -0.30928349 33.249741
-8.6401291 -0.32589579 33.371098
-13.002247 -3.0998349 33.486973
-9.0596304 -3.08956 33.460289
-7.9547772 -3.081718 33.403343
-3.073154 -3.0842607 33.404366
-0.037193254 -3.0990372 33.503456
-14.086803 -3.112962 33.74065
-13.110693 -3.1117461 33.666714
-12.510515 -3.1123157 33.639557
-8.3317108 -3.1116362 33.741283
-2.9459705 -3.0999362 33.744389
-2.3195665 -3.0964146 33.760384
0.83532763 -3.1043448 33.641937
-12.16656 -0.32101321 33.762833
-8.1341581 -0.35926545 33.678051
-9.2867737 -3.1102886 33.827442
-8.7793427 -3.1150742 33.945881
-7.6735153 -3.1152427 33.873409
-1.5966061 -3.1092267 33.87001
-12.744129 -0.33842373 33.933064
2.6270015 -4.4941988 34.193817
-8.6491623 -3.1167946 34.018353
-1.4157096 -3.1102364 34.154373
-0.22731745 -3.1207423 34.124065
2.4924843 -4.7539525 34.208656
2.8026483 -4.4890265 34.205864
-13.924273 -3.1581244 34.374798
-9.7566643 -3.1379819 34.312294
-9.3587685 -3.1269026 34.353912
-8.2601376 -3.1343293 34.384945
0.0046545118 -3.1285729 34.378647
-8.1532478 -1.9218715 34.353603
-0.48810253 -1.9369061 34.344452
-8.6853466 -0.42597163 34.377945
-10.604398 -0.35450649 34.379868
-8.6216221 -0.3730582 34.391239
-8.057929 -0.36743295 34.246162
-13.031931 -3.1583881 34.491951
-12.162422 -3.1505675 34.517345
-8.8901081 -3.1412325 34.537582
-8.0264387 -3.1360254 34.461014
-2.055896 -3.1494761 34.597866
-0.4026708 -1.6978935 34.417961
-0.38738441 -1.6883538 34.432732
-13.628888 -3.1544466 34.648571
-1.3110249 -3.1427822 34.628708
-12.95703 -3.1798472 34.940674
-9.2087784 -3.1601419 34.86018
-8.4282608 -3.1651161 34.954762
-7.9068851 -3.152905 34.804981
-7.3701973 -3.1661513 34.982201
-6.3943415 -3.1602936 34.982704
-2.2157388 -3.1531911 34.880302
-0.99210918 -0.38852096 34.967026
0.77481163 -0.39140427 34.999985
-13.834114 -3.1904998 35.142838
-13.270399 -3.1864395 35.018929
-13.089432 -3.1939845 35.073402
-12.996307 -3.1843243 35.130222
-10.760233 -3.1754525 35.049671
-8.2574596 -3.1822586 35.138401
-2.3438075 -3.1959364 35.170467
-1.3311404 -3.1629674 35.021599
0.80757946 -3.1637506 35.172352
-13.76115 -3.1976657 35.243073
-13.368246 -3.1905513 35.320168
-13.131923 -3.1901438 35.241158
-9.0425291 -3.1895535 35.350704
-8.2648659 -3.1856968 35.327778
-0.55291075 -3.1664352 35.232735
0.5383777 -3.1376009 35.374863
-8.2732334 -1.9205842 35.317963
-8.1403923 -1.9470377 35.282036
-13.425967 -0.40943253 35.223133
-8.078743 -0.44197261 35.234623
-2.2599375 -3.2211199 35.59034
-12.822662 -3.1995525 35.490318
-8.6503086 -3.1880579 35.505165
-2.4137683 -3.1913452 35.551731
0.062921718 -3.1467366 35.434593
-13.601236 -0.42073298 35.457619
-2.211787 -0.4068011 35.567436
-1.1582625 -0.42073476 35.588825
-8.1597195 -0.38948774 35.501865
-14.034602 -3.220526 35.711411
-13.893259 -3.2140007 35.621403
-13.103565 -3.2223065 35.774288
-12.723127 -3.2168553 35.664299
-12.414631 -3.2087212 35.622711
-12.341492 -3.2245975 35.736931
-0.30397457 -3.2132936 35.748272
0.78951967 -3.2187741 35.666847
-1.4283924 -3.198947 35.623253
-1.3104951 -3.1894767 35.637596
0.25455779 -0.41955769 35.632492
-2.326154 -3.1926575 35.976357
-0.50950825 -3.194541 35.803047
-1.9287606 -1.9617499 35.992428
-1.6811981 -1.4922746 35.89854
-13.473953 -3.2212772 36.091022
-13.148669 -3.2336292 36.031643
-11.7763 -3.2253907 36.053589
-8.8175058 -3.2084575 36.058052
-5.48804 -3.226527 36.187538
-1.0877595 -3.2269077 36.074158
0.1570317 -3.223907 36.081547
-8.0055466 -0.42359746 36.104214
-11.50628 -3.234261 36.344219
-13.183931 -3.2499535 36.539158
-10.755932 -3.2368665 36.533775
-9.6784048 -3.2441254 36.45668
-8.3785925 -3.2508593 36.535725
-2.5113788 -3.2304237 36.454842
-1.8072686 -1.5142701 36.569172
-1.6623493 -1.5395105 36.464294
-10.954821 -0.42619205 36.48806
-10.520002 -0.43507409 36.53336
-8.9126396 -0.45125961 36.567833
-13.573433 -3.2641759 36.6614
-12.659136 -3.2603095 36.729092
-12.308995 -3.2478182 36.690536
-9.9903278 -3.2483006 36.679482
-7.1530747 -3.2472825 36.694881
-11.613866 -0.47121465 36.795891
-10.820464 -0.45939827 36.655861
-9.6150084 -0.46689034 36.799026
-9.475563 -0.46145013 36.661819
-0.096921772 -3.2660096 36.884773
-2.0157604 -3.1508021 36.995651
-8.0437422 -2.0662603 36.902367
-8.1018753 -1.9848088 36.945812
-1.941406 -1.5582732 36.92942
-11.493729 -0.45841813 36.864967
-8.0145912 -0.47958004 36.836342
-13.377753 -3.2876329 37.154369
-12.646254 -3.2857635 37.112499
-12.454082 -3.2695158 37.127407
-2.5393395 -3.2836142 37.17865
-2.0463915 -3.2474587 37.081806
-13.008186 -3.2855115 37.375198
-12.827134 -3.292326 37.278019
-10.313155 -3.2672546 37.214241
-9.4945335 -3.2715535 37.204811
-9.2144442 -3.2782845 37.284222
-8.6764698 -3.2809005 37.279449
-13.943171 -3.2857811 37.432106
-13.015663 -3.2942467 37.522652
-10.374092 -3.2949958 37.56884
-13.158604 -3.3125505 37.717644
-11.064621 -3.293216 37.611755
-8.5590057 -3.3065567 37.716099
-8.2379169 -3.3020811 37.757553
-7.9012909 -3.3026147 37.622181
-1.9768795 -3.2997026 37.786007
-1.4037846 -3.2974353 37.726143
-0.65648228 -3.278738 37.60743
0.45611227 -3.2901175 37.651234
1.3781416 -3.2892809 37.762535
-13.457264 -3.3145609 37.948921
-13.196259 -3.3227677 37.991802
-11.966303 -3.3167229 37.875256
-8.6108551 -3.327457 38.171532
0.40387109 -3.3085496 38.016026
-7.856988 -2.0942824 38.187973
-12.626811 -3.3342118 38.295597
-9.6358061 -3.318619 38.282539
-9.5819302 -3.3316071 38.299618
-8.621068 -3.3347201 38.35363
-7.8326445 -3.3295653 38.255318
0.53808057 -3.3186245 38.384193
-12.989157 -3.3488727 38.448921
-12.273766 -3.3463244 38.561771
-10.005499 -3.3575239 38.794914
-9.0964766 -3.3379216 38.607098
6.325058 -1.1542645 38.688011
6.616107 -1.0508988 38.656174
6.9772329 -1.0627514 38.674618
6.4408565 -0.94449586 38.699654
7.0122457 -0.92255503 38.712231
5.7358031 -0.72053385 38.72876
5.9751287 -0.73231673 38.798653
6.445734 -0.76508009 38.712269
6.9359417 -0.73271739 38.691856
7.0206757 -0.781214 38.779808
-9.4419632 -3.3428133 38.866325
-1.5938874 -3.3546073 38.813625
0.19101685 -3.341774 38.980213
1.2678376 -3.3413582 38.840813
-0.55332839 -2.1199772 38.975502
6.9940829 -1.2093921 38.824261
6.7098551 -0.73221076 38.897797
-11.553525 -0.53970814 38.888397
-10.548502 -0.55745065 38.970123
-10.472857 -3.3648765 39.19677
1.9812729 -3.3518212 39.097359
-0.40174285 -2.2239807 39.061432
-0.35915512 -2.3602371 39.061203
-0.3926062 -2.0185926 39.017155
-0.34689412 -1.8537326 39.072983
-9.3063421 -0.62474585 39.186203
6.6320968 -0.742787 39.177895
6.8453641 -0.7215997 39.177071
-9.5536699 -0.56305778 39.065697
-8.9386129 -0.56543469 39.040264
-11.619726 -3.3859375 39.363594
-8.5358696 -3.3705916 39.338966
1.3952107 -3.3656697 39.337654
-0.25638574 -2.1156771 39.206005
-0.31900662 -1.9777842 39.21954
-12.150835 -0.6218406 39.204269
-9.9378223 -0.6318171 39.234131
-13.754559 -3.3829684 39.44062
-13.344232 -3.3846798 39.428387
-13.055234 -3.3988953 39.531418
-9.7127867 -3.3899441 39.423355
-1.2387085 -3.3871222 39.579842
-0.71993446 -3.3749237 39.458321
0.38795933 -3.3732333 39.482502
2.416286 -3.3627288 39.494606
-10.727842 -2.4585977 39.586403
6.9835129 -1.2271464 39.572327
7.0135641 -1.1133606 39.456158
6.9998174 -0.73636949 39.508007
-12.526409 -3.4063063 39.782005
-11.489359 -3.4009809 39.714432
1.7514145 -3.3797767 39.713848
1.8307816 -3.3799815 39.678776
-10.946058 -2.9159279 39.602371
-7.9000955 -2.1770108 39.769733
-0.37605631 -1.8826571 39.694786
6.9340234 -0.75480652 39.664974
-12.815958 -0.59468997 39.676666
-13.68106 -3.4044173 39.951279
-8.1738205 -3.3914742 39.871471
-0.31832448 -2.1158521 39.809685
7.0599413 -1.4074113 39.967678
7.0252633 -1.3310133 39.97435
-12.765888 -3.4151592 40.09177
-12.105145 -3.4329906 40.114693
-9.774641 -3.4106953 40.020767
-8.0714407 -3.4088888 40.057335
-6.0855718 -3.4093223 40.055347
0.77886367 -3.4073062 40.001591
2.4393668 -3.4128137 40.111275
-5.2956219 -3.3974977 40.031441
-0.56878239 -3.3929129 40.005669
-0.36575228 -1.8798772 40.195415
-7.9808583 -0.6424911 40.079872
-13.421965 -3.4336629 40.279121
-13.055431 -3.4384847 40.371525
-6.1021214 -3.4151115 40.358753
-1.2057562 -3.4125452 40.238544
-0.47177857 -2.0694261 40.324589
-0.38798925 -2.1855474 40.367176
-0.46032375 -1.9225577 40.246342
7.0057359 -1.284297 40.352226
6.9209723 -0.81124473 40.31823
0.98375422 -0.66231227 40.320656
-13.226927 -3.4431243 40.54752
-12.444264 -3.4307518 40.467628
-10.419497 -3.4359016 40.597633
-9.7876759 -3.4436491 40.565517
-5.2910748 -3.4216914 40.490662
-1.7928729 -3.4234784 40.501259
-1.3963127 -3.4152968 40.526756
0.86372775 -3.425509 40.412312
1.3567855 -3.4319134 40.537903
1.6968977 -3.4118018 40.510586
2.6739426 -3.4005218 40.489273
6.9740076 -1.3002658 40.4674
6.9399967 -0.81136727 40.557957
-0.67792523 -0.6675719 40.464493
-0.48747647 -0.66653442 40.462288
-13.093431 -3.4548769 40.79361
-12.546817 -3.4416363 40.606895
-12.289254 -3.4632664 40.642818
-11.469797 -3.4372563 40.64677
-7.4670224 -3.438108 40.699978
-5.312746 -3.4305239 40.647652
0.35175452 -3.4255672 40.734432
-13.12453 -3.4629703 40.832481
-11.745605 -3.443902 40.861217
-5.5397453 -3.4377778 40.952618
-1.4290063 -3.4508843 40.973064
0.10854434 -3.4497943 40.942238
2.2097869 -3.4258118 40.857571
2.5453269 -3.42555 40.998775
7.0528421 -1.4787509 40.970695
6.9694414 -1.3363681 40.85915
7.0548916 -1.2819434 40.894772
-12.668026 -3.4794879 41.116829
-12.419397 -3.4672208 41.15049
-12.13599 -3.4525237 41.13279
-11.195414 -3.4576778 41.068531
-9.291255 -3.4581726 41.036076
-8.1834993 -3.4588122 41.000008
-7.9782362 -3.4551883 41.049007
-5.374579 -3.4533412 41.195244
-2.952045 -3.4488697 41.192131
-2.4895396 -3.4656088 41.118992
1.0253974 -3.4465365 41.188999
6.9490438 -0.85580289 41.195126
-13.083656 -3.4762971 41.313152
-10.122497 -3.4543867 41.266628
-7.2603951 -3.4520569 41.24242
2.6262896 -3.4552331 41.306046
6.9621487 -1.2538946 41.342758
7.0220485 -1.2750685 41.270851
6.9059439 -0.85706162 41.398411
-13.833522 -3.5084243 41.590832
-10.737417 -3.4722011 41.411819
-9.4272232 -3.4772971 41.537682
-5.6525917 -3.4756424 41.485855
-1.7613801 -3.4874573 41.570461
-0.60563546 -3.4741912 41.450981
0.69205374 -3.4750788 41.491863
1.8316817 -3.4539351 41.434639
2.341821 -3.4517369 41.570614
2.6544936 -3.4432173 41.437008
-0.72311807 -2.4941151 41.499306
-0.73075545 -2.3505721 41.577839
-13.416627 -3.5121601 41.656586
-10.074383 -3.4879622 41.767399
-7.4139433 -3.4799986 41.737175
-7.3417683 -3.4796765 41.65559
-1.9523803 -3.4865217 41.764824
-1.7324791 -3.4764957 41.703381
-0.54632819 -2.5145962 41.675171
-0.65197343 -2.2920158 41.646683
-0.44394502 -2.2903745 41.670132
-0.52698338 -2.0941164 41.676716
-0.47888917 -1.9884253 41.67794
-2.6993644 -0.69784832 41.637199
-13.044387 -3.5057535 41.80312
-12.853773 -3.5036166 41.992237
-11.480295 -3.5002942 41.920788
-9.5978642 -3.4947231 41.959999
-8.7616234 -3.5057685 41.990692
0.039691195 -3.4878156 41.800476
1.792557 -3.4792504 41.815414
7.0517187 -1.4192278 41.811783
7.0039496 -1.2865217 41.902172
7.0130644 -0.90207243 41.873299
-13.053189 -3.4988627 42.037254
-12.93055 -3.571631 42.057831
-0.93825388 -3.5060921 42.142292
2.3819149 -3.4774809 42.101086
-2.175477 -2.1968422 42.185268
6.9904118 -1.4522024 42.112465
6.9900656 -1.2672355 42.127171
6.9196205 -0.9046883 42.097679
-12.623146 -3.509599 42.354946
-11.61866 -3.5209701 42.299931
-10.669776 -3.5222228 42.335003
1.0868953 -3.4957519 42.237232
-0.70282418 -2.5588336 42.282429
-0.57688594 -2.4106622 42.323238
-2.4894469 -2.258616 42.2799
-0.82102489 -2.3944993 42.236473
-0.74947578 -2.2649159 42.270592
-0.47347867 -2.2722561 42.286591
-2.33305 -2.1211321 42.228172
-2.1658726 -2.0323997 42.28896
-0.60990918 -2.0887399 42.325081
-0.5522573 -2.1464558 42.255219
-2.1562462 -1.9013722 42.254776
-0.60450041 -1.9939072 42.318264
-0.50459111 -1.98008 42.266235
-2.1562698 -1.7734429 42.24884
7.004468 -1.285308 42.224247
2.5781565 -0.74725032 42.396923
-11.061052 -3.5253541 42.431602
-9.534894 -3.5344276 42.592072
-8.432972 -3.5220923 42.579624
-1.3261305 -3.5297675 42.461155
-1.1198988 -3.517951 42.457218
0.025352195 -3.5172248 42.561859
0.49667811 -3.5240898 42.516624
-8.036253 -2.2434928 42.491127
-7.9583464 -2.3878307 42.497425
6.990139 -1.4189603 42.569794
6.979425 -1.360185 42.507111
7.0020199 -1.3274789 42.568123
7.0010858 -1.1211294 42.593693
6.9425468 -0.90907145 42.563248
7.0015335 -0.93670756 42.520088
-13.913251 -3.5518525 42.790367
-13.783798 -3.5337532 42.608616
-12.806627 -3.5472081 42.69474
-8.633461 -3.538691 42.699108
-0.34182623 -3.5359912 42.70343
-0.024817169 -3.5200651 42.653835
1.7319924 -3.5170803 42.75629
5.269567 -1.2813121 42.759155
5.5571637 -1.2904756 42.748695
5.6996446 -1.2539496 42.750587
5.8844466 -1.2464317 42.752674
6.3469143 -1.3399553 42.771774
6.9515328 -1.2532157 42.713726
5.4745135 -1.1250726 42.776104
5.704411 -1.0897653 42.750023
5.850945 -1.1018833 42.685909
6.3318415 -1.1882099 42.787533
6.9650154 -1.0749242 42.717087
5.2900815 -0.9276256 42.651012
5.4670177 -0.97567588 42.765228
5.8212209 -0.99075979 42.659218
6.2999353 -0.98755217 42.792759
6.9714055 -0.96294081 42.763306
-13.350197 -3.5536454 42.820984
-12.339693 -3.5654187 42.950645
-11.865549 -3.5497413 42.894928
-11.495144 -3.5473237 42.925903
-11.240597 -3.5421546 42.946541
-1.2571442 -3.5254917 42.81044
-9.0911665 -1.4172449 42.867992
-8.8630199 -1.4689038 42.990204
-9.0378847 -1.2560233 42.953003
-8.912015 -1.30152 42.931492
-8.7973166 -1.3763179 42.978191
6.963346 -1.2671638 42.818642
-8.8836279 -1.0594912 42.997639
6.708972 -1.1303976 42.802876
-8.9054708 -0.80949152 42.947269
6.7021866 -0.96811831 42.801704
-9.0167894 -0.78120703 42.871841
-13.499418 -3.571161 43.103058
-13.174876 -3.5503719 43.179592
-0.43236437 -3.553597 43.120914
-0.38808966 -3.5492041 43.132088
1.0729489 -3.5347681 43.027092
1.5446002 -3.5387547 43.0886
-19.010441 -3.0886488 43.141937
-17.262695 -3.1296015 43.193825
-8.8883781 -1.4546146 43.048912
-9.0430164 -1.3175753 43.126541
-8.9004345 -1.2904904 43.113403
-8.7968664 -1.3244326 43.098721
-9.0108166 -1.1093086 43.075432
-8.9810667 -1.0165652 43.067493
-9.017581 -0.89854872 43.062927
-8.9698076 -0.94101727 43.077019
-20.754139 -3.4379163 43.20314
-20.490709 -3.5722101 43.219383
-19.901165 -3.4431663 43.222427
-19.423241 -3.4124498 43.22459
-19.051649 -3.4684329 43.235306
-18.29141 -3.50595 43.24881
-17.363712 -3.4487467 43.316536
-17.118303 -3.529428 43.251019
-13.342072 -3.5930593 43.358791
-12.802845 -3.5667443 43.303162
-12.43626 -3.5625119 43.292351
-11.286063 -3.5718288 43.230896
-8.869545 -3.5746412 43.270786
1.6368557 -3.5452337 43.279297
-20.748362 -3.2832818 43.213074
-20.453671 -3.2274365 43.220852
-20.160301 -3.3219724 43.224815
-19.926201 -3.3285787 43.229958
-18.979916 -3.3162699 43.240608
-18.693031 -3.2930117 43.243164
-17.333241 -3.2754166 43.322651
-21.190876 -3.1223497 43.229641
-20.563524 -3.1044323 43.234928
-18.704981 -3.1585381 43.254414
-17.334354 -3.0752914 43.35228
-21.489552 -2.8248923 43.247978
-20.728922 -2.9463606 43.233242
-17.326973 -2.8643296 43.321381
-20.886833 -2.6583354 43.301094
-20.584366 -2.7922866 43.253651
-22.022423 -2.5356679 43.287804
-20.821163 -2.4657798 43.322666
-20.31916 -2.4612455 43.317303
-20.923498 -2.3331141 43.311642
-2.2664962 -2.2183523 43.267094
-2.0575678 -2.3637602 43.256039
-1.8714504 -2.2146466 43.366081
-22.049404 -2.1038129 43.310844
-19.966297 -2.0714846 43.345467
-19.082312 -2.1180034 43.345112
-18.893749 -2.0790405 43.302345
-21.36441 -1.8413434 43.342422
-19.977062 -1.84321 43.360657
-19.698784 -1.9947813 43.347908
-18.835197 -1.8441397 43.370178
-18.723267 -1.8496717 43.36306
-18.399792 -1.9828315 43.360291
-2.0674744 -1.8844175 43.348175
-21.378031 -1.6822841 43.349289
-19.985954 -1.6991448 43.367779
-18.991499 -1.7105042 43.376816
-18.742527 -1.7239823 43.365334
-25.831137 -1.5340171 43.364185
-19.843407 -1.4721756 43.374443
-18.936848 -1.4536482 43.385643
-18.735998 -1.5312506 43.378189
-25.813053 -1.2306316 43.366844
-9.0325775 -1.330869 43.202873
-25.771683 -0.83695912 43.374718
1.3167981 -0.80425531 43.342834
-9.2265501 -0.77818823 43.271523
-1.6158628 -0.79858619 43.326813
-17.459423 -3.577868 43.466789
-12.810276 -3.5880656 43.482044
-0.9271192 -3.5637741 43.454983
-0.12991872 -3.5649235 43.53281
