# .PCD v0.7 - Point Cloud Data file format
VERSION 0.7
FIELDS x y z intensity
SIZE 4 4 4 4
TYPE F F F F
COUNT 1 1 1 1
WIDTH 1186
HEIGHT 1
VIEWPOINT 0 0 0 1 0 0 0
POINTS 1186
DATA ascii
-12.542773 -4.0845075 117.003 21.141302
-12.199124 -4.081121 117.01663 22.228376
-11.826412 -4.0595345 116.9743 19.186111
-11.424852 -4.0484705 117.02055 18.6696
-11.071164 -4.0463791 116.98177 19.632668
-10.633658 -4.0604529 117.02976 18.105839
-10.313441 -4.067986 117.04716 17.6087
-9.8338766 -4.0697503 116.95522 15.358944
-9.3988762 -4.0796142 117.01902 14.901889
-9.0284443 -4.0791669 116.98283 14.285714
-8.6100521 -4.0576677 116.98664 14.1255
-8.2068577 -4.042417 117.07423 17.288321
-7.7353468 -4.0348001 116.98174 18.278561
-7.4091477 -4.0302968 117.01719 18.761091
-6.9598784 -4.0428443 117.03998 20.684481
-6.5794148 -4.0359364 116.99146 21.588772
-6.2321625 -4.0420289 117.06658 20.83357
-5.7983079 -4.039762 117.08848 20.757839
-5.4116969 -4.0398822 117.0176 19.500751
-5.0092387 -4.0374055 117.05481 20.212433
-4.5813327 -4.0531096 117.04852 18.167229
-4.1766353 -4.0625758 117.02739 16.988024
-3.8242929 -4.0650358 116.96195 18.991104
-3.375566 -4.0448956 117.00333 15.502531
-2.9467711 -4.0264673 117.00974 18.577732
-2.5780749 -4.025434 117.00697 18.833748
-2.1919446 -4.0201478 117.0145 19.151163
-1.7872584 -4.0335183 117.02575 20.192059
-1.4151893 -4.0354824 117.05114 20.613016
-1.0126982 -4.0246201 117.00909 19.876583
-0.59146595 -4.0342627 117.00502 21.48914
-0.25414893 -4.027215 117.06717 21.563354
0.16621958 -4.027586 116.98965 19.398918
0.59197682 -4.0422206 117.04843 20.216328
1.1064028 -4.2112403 117.04105 24.485748
1.339368 -4.2407403 116.99556 22.106861
11.197805 -4.039494 116.85745 23.0075
12.075102 -4.2503648 117.1696 24
12.882029 -4.2073193 117.15396 24
14.015524 -4.1441517 117.0718 24
-10.514977 -3.9921949 117.04972 24.041
-4.9714952 -3.9860783 116.90593 22.04875
-2.4164495 -3.9934216 116.96007 20.011999
-1.9094148 -3.9987674 116.99167 19.011999
-0.89645958 -3.9803448 116.81939 18.008499
-0.31895733 -3.9898164 117.12039 20.0135
0.6074214 -3.9809244 117.00863 23.533749
1.188241 -3.9952042 117.09197 28
1.2818041 -3.9738512 116.8714 20.75
-6.4689302 -8.2070312 117.39199 45.049
-6.2740889 -8.0466652 117.46809 44
-6.5093894 -7.6917205 117.48969 43.931599
-6.2657843 -7.722991 117.51939 43.798668
-14.043531 -7.3091612 117.27779 43.040001
-6.8821511 -7.4993362 117.5527 44.627277
-6.5841737 -7.3724957 117.51579 42.468716
-6.3070154 -7.3899927 117.55176 41.697762
-14.079072 -6.966382 117.43488 42.868965
-13.890486 -6.8652725 117.46062 43.193855
-13.426425 -6.8436141 117.34703 44.473301
-13.028182 -6.8405671 117.41147 43.825542
-12.614752 -6.8433638 117.40626 42.938255
-12.165133 -6.8423643 117.42785 46.075813
-11.807323 -6.8272939 117.34179 43.315125
-11.38996 -6.84058 117.27122 45.083748
-11.00649 -6.8483753 117.39857 46.205563
-10.694052 -6.8417692 117.44566 44.589375
-10.163608 -6.8580022 117.41035 44.958218
-9.7903814 -6.8487182 117.38338 44.276539
-9.3404741 -6.8460569 117.38857 43.193821
-8.9466057 -6.8339891 117.39787 44.563343
-8.5361328 -6.846199 117.3552 44.569248
-8.2765541 -6.8417397 117.44402 44.479183
-7.8249679 -6.8394165 117.38308 46.785252
-6.9262643 -6.9702621 117.4819 43.985229
-6.5812955 -6.9220777 117.46539 44.688866
-6.3011808 -6.953537 117.53052 46.791515
-5.3703208 -6.825541 117.42471 49.730915
-5.0417967 -6.8398333 117.43314 51.074184
-4.6253476 -6.8304801 117.35437 50.548584
-4.2656045 -6.828196 117.38355 49.321926
-3.869895 -6.8169975 117.31261 48.986332
-3.4066315 -6.8235521 117.4054 46.422977
-3.0983553 -6.8127995 117.30108 47.153957
-2.6483278 -6.8215985 117.40704 47.109684
-2.1745389 -6.8164296 117.37766 47.686325
-1.8416563 -6.8120546 117.41801 47.472603
-1.4206458 -6.8120232 117.42681 46.747787
-0.99511302 -6.8073225 117.38725 46.076843
-0.60275108 -6.8143902 117.42963 44.843975
-0.17321984 -6.811151 117.39164 46.404877
0.18516238 -6.8196321 117.40617 45.737606
0.55510974 -6.8196774 117.36895 45.40596
0.94055647 -6.8258033 117.41653 40.877666
1.2054033 -6.8355765 117.21913 35
-14.112322 -6.6283998 117.41858 40.625877
-13.927288 -6.7581387 117.20291 40.040001
-6.8822546 -6.6155262 117.54044 44.499542
-6.6022506 -6.6177435 117.53091 41.85046
-6.316824 -6.6267371 117.53842 41.065865
-2.4559824 -6.7921777 117.22404 48.057251
-1.6910939 -6.7964063 117.41545 46.0895
-1.4004761 -6.7927499 117.30114 45.727249
-0.98167503 -6.7891283 117.30364 43.039253
-0.43503809 -6.7979736 117.26548 45.087502
-0.18127155 -6.7882247 117.34197 42.386417
0.64997077 -6.7851658 117.47798 42.036247
1.0739813 -6.6288977 117.40166 42.363689
1.2994049 -6.6126895 117.42003 37.039944
-14.116382 -6.2191091 117.41293 37.777996
-6.887527 -6.2295871 117.56553 42.024166
-6.584661 -6.2144918 117.55742 38.901096
-6.3401351 -6.192162 117.56799 39.031467
-2.4778202 -6.0864038 117.45439 39.521873
-2.2586141 -6.1433396 117.27234 37.814869
-1.3524626 -6.1344967 117.46939 39.236443
-1.1004485 -6.1077533 117.26807 37.713749
-0.44776499 -6.0472784 117.55093 38.5
-0.24112737 -6.1427488 117.52129 33.875
1.1185037 -6.230957 117.4082 38.455288
1.2971138 -6.2707982 117.4037 36.331249
-14.09621 -5.8464355 117.4178 35.643936
-6.9183674 -5.6133938 117.56606 36.555557
-6.5532269 -5.7982502 117.55661 36.41116
-6.3432155 -5.6877022 117.57209 35.865383
-2.4476831 -5.7291331 117.49091 35.833332
-2.2609131 -5.7989831 117.29186 35.763233
-1.7965537 -5.6716747 117.33067 35.290752
-1.2810363 -5.8008008 117.42651 35.569447
-1.0864607 -5.7999759 117.27538 35.707375
-0.43435177 -5.7042189 117.49664 35.912601
-0.29317677 -5.8088284 117.46885 33.488209
1.1230012 -5.8259296 117.42384 35.574619
1.3226489 -5.8596249 117.42606 32.501984
4.1131687 -5.7478538 117.21712 35
8.5819044 -5.7590332 117.32751 31
10.886181 -5.7084942 117.23261 30
11.267861 -5.7342877 117.59846 30
11.91676 -5.7335157 117.49723 30
-14.096047 -5.4601502 117.40797 33.46072
-6.8128624 -5.4321542 117.58246 34
-6.5600429 -5.4294391 117.56746 33.835167
-6.3531594 -5.2531781 117.57937 32.5
-2.4798267 -5.3105679 117.47993 30.517517
-2.2647619 -5.3924136 117.31023 32.752098
-1.774519 -5.4412656 117.4509 33.9104
-1.3257835 -5.3715129 117.40952 32.622337
-1.095366 -5.3891149 117.29827 32.237156
-0.48109058 -5.3362503 117.52032 33.149811
-0.30966699 -5.423923 117.48754 31.506783
1.1190585 -5.3686371 117.42406 32.165089
1.334119 -5.4660568 117.48578 29.720833
2.650893 -5.5180039 117.53452 34.5
3.4654272 -5.354013 117.41173 30.536499
3.7387321 -5.4780025 117.58049 33.825001
4.221128 -5.3785815 117.30737 31.746887
8.398243 -5.503356 117.5413 30
8.5327387 -5.5065904 117.40685 29.833334
10.725619 -5.3903913 117.40561 28.75
10.911922 -5.2317629 117.41161 28
11.267201 -5.3965282 117.59554 28.666666
11.778205 -5.3445587 117.53882 28.5
-14.099812 -5.0306306 117.42664 30.477512
-6.8575416 -4.9756856 117.58431 30.958334
-6.6221581 -5.0451431 117.55502 31.342804
-6.3226185 -4.9336705 117.59521 29.736111
-2.5454407 -4.9685488 117.52122 27.5755
-2.2055562 -5.010282 117.29529 29.651815
-1.7926944 -4.9899235 117.33133 30.052153
-1.3678725 -5.0241814 117.48114 29.865637
-1.0582635 -4.9909601 117.2924 29.332945
-0.57101774 -4.9851575 117.37609 30.833572
-0.32032618 -5.0803103 117.4944 30.272501
1.1211935 -4.9824548 117.3837 28.667629
1.3351246 -5.0565004 117.44217 27.627272
2.632854 -5.1346421 117.51661 32.030251
2.9098592 -5.0010881 117.23005 31.062126
3.5186625 -5.0679421 117.519 27.01
3.8403401 -5.0069017 117.4446 29.935778
4.1867113 -5.0288186 117.26209 28.566666
8.3942871 -5.1584187 117.55286 28.5
8.5959778 -5.1562505 117.35799 28.375
8.8727722 -4.8624892 117.20271 26.666666
10.659549 -4.9669075 117.4029 27
11.568086 -4.9566736 117.55272 27
11.966626 -4.9476385 117.56389 27
-14.09439 -4.6293159 117.39584 28.086313
-6.8205757 -4.4348621 117.5743 25
-6.6464858 -4.5484824 117.56341 26.907406
-6.3622336 -4.586473 117.5997 26
-1.8527236 -4.7570162 117.34075 32.054001
-0.91996622 -4.7489929 117.21774 32
1.108619 -4.5923305 117.42342 26.567822
1.3076283 -4.6811557 117.37942 25.814285
8.3912373 -4.6588988 117.59294 26.5
8.6170902 -4.6041279 117.36536 25.687037
8.9387856 -4.6507263 117.33217 26.517
10.799585 -4.4375925 117.25651 24.5
10.819202 -4.7827425 117.24006 26
11.555821 -4.5635009 117.56414 25.5
11.986262 -4.6774917 117.57333 26
-14.087105 -4.2099991 117.40766 25.763069
-13.809114 -4.0702734 117.34003 24.060749
-13.285448 -4.0853472 117.26756 19.582375
-12.914774 -4.0987029 117.40247 21.070875
-12.642984 -4.0848684 117.39392 22.064501
-12.136826 -4.0908685 117.4327 20.071875
-11.941839 -4.0652313 117.38834 23.053249
-11.433374 -4.0930166 117.30783 20.07
-11.056003 -4.0796452 117.32391 17.746584
-10.574673 -4.081151 117.39828 18.823689
-10.193598 -4.0764756 117.35567 17.640551
-9.7575779 -4.0804739 117.43447 15.4154
-9.2865448 -4.1088524 117.3739 18.001251
-9.1238203 -4.0967727 117.3931 17.693083
-8.5925922 -4.0807886 117.35174 14.25
-8.1946154 -4.075356 117.46526 19.0326
-7.8498135 -4.0622292 117.4149 19.290001
-7.4030027 -4.0626593 117.25616 20.289438
-6.9569106 -4.0666046 117.39142 21.748873
-6.5852809 -4.1105685 117.49421 21.895237
-6.2131486 -4.0682378 117.47201 18.181143
-5.8527708 -4.0588322 117.39897 21.41785
-5.4041944 -4.0562825 117.36623 20.182661
-4.9745569 -4.061275 117.39317 20.5471
-4.5846381 -4.058217 117.34033 16.697126
-4.2250032 -4.0694518 117.33725 18.237051
-3.7322037 -4.0702038 117.33435 16.546835
-3.4040167 -4.0616579 117.39989 16.926056
-2.9978957 -4.0597448 117.33475 19.207916
-2.5936739 -4.0545826 117.30386 20.605469
-2.2127666 -4.0559988 117.28091 21.008457
-1.7409443 -4.0501533 117.27348 20.835306
-1.4478207 -4.0493364 117.35957 19.48118
-0.98158073 -4.0534754 117.35561 20.466866
-0.6032241 -4.0408735 117.29807 20.271803
-0.21209814 -4.0410752 117.30551 21.048908
0.19752026 -4.0397992 117.39191 18.568335
0.58326507 -4.0580611 117.37464 19.940657
1.0952668 -4.2113223 117.40585 23.251135
1.2907283 -4.2144213 117.36848 22.85577
6.2350912 -4.0801158 117.56877 21.087
8.5845318 -4.2705688 117.4166 24.280001
8.9012394 -4.3413506 117.29625 24.841833
9.3878593 -4.0985909 117.32294 22.095501
10.781462 -4.0925374 117.26994 23
11.465744 -4.2290978 117.39188 24
-14.066098 -3.9819553 117.4168 25.333334
-6.5983391 -3.8529744 117.4693 19.059376
1.3780098 -3.9737177 117.54831 19.5
-11.309519 -9.7428474 117.91129 45.050499
-13.555824 -9.3152981 117.92405 45.047501
-11.403918 -9.470726 117.81918 53.044498
-10.854308 -9.4095669 117.88892 53.044998
-10.507473 -9.3688049 117.82291 47.0485
-10.335446 -9.4237347 117.9009 47.048
-8.5513401 -9.2175331 117.90521 33.001999
-8.150198 -9.4510937 117.71398 42.001499
-5.3534689 -9.4284763 117.75281 48
-13.154888 -8.9161119 117.80812 47.043999
-12.607926 -8.9376869 117.78615 55.117199
-12.189718 -8.9315224 117.82497 54.042
-11.30064 -8.9126492 117.93344 36
-10.859642 -8.9103708 117.93958 36
-10.473316 -8.985692 117.91099 41.02425
-10.168938 -9.0279493 117.90618 45.626278
-9.7608948 -8.9626036 117.89947 44.091358
-9.3747787 -8.9544525 117.89651 36
-8.9571276 -8.9961119 117.90098 36
-8.4514532 -8.804677 117.96327 35
-8.1348848 -9.0336695 117.86265 37.667164
-7.9056802 -9.030592 117.87265 37
-7.3942566 -8.9721823 117.82724 38.000668
-5.2199988 -8.9513121 117.75184 46.034836
-1.3520937 -9.1393242 117.77023 45.009998
-12.574718 -8.7031326 117.87737 49.158501
-12.200793 -8.6306524 117.85992 50.208832
-11.779147 -8.4969273 117.85344 52.540501
-11.403024 -8.5605946 117.96465 40.522751
-10.997294 -8.5911446 117.985 44.25
-10.535675 -8.4837284 117.98616 35
-10.146292 -8.6372871 117.96941 38
-9.814147 -8.5389156 117.95692 34.25
-9.3809013 -8.5725336 117.94318 34.909092
-9.041851 -8.5657654 117.93214 37.809448
-8.5923996 -8.5322294 117.87409 40.027637
-8.2202749 -8.5262165 117.85924 40.895
-7.8523078 -8.5200777 117.88574 35.667667
-7.4258008 -8.5678406 117.89278 35.285713
-4.9356952 -8.6357393 117.78844 43.256557
-4.7261066 -8.5882206 117.81743 45
-3.9406724 -8.4401274 117.7908 51.051998
-3.4516275 -8.5114117 117.84528 41.5
-3.0414772 -8.578805 117.83175 41.017834
-2.5938499 -8.5351086 117.79392 41.601402
-2.2051327 -8.5553179 117.7963 50.506001
-11.386703 -8.3040524 117.89875 51.021248
-11.013221 -8.2284126 117.9436 46.959534
-10.608887 -8.1486378 117.91277 45.283497
-10.247001 -8.1533661 117.96046 41.522247
-9.8259602 -8.1678391 117.97541 35.285858
-9.3826857 -8.1889257 117.96388 35.428749
-8.9577456 -8.1873083 117.95193 34.909092
-8.5454321 -8.1806593 117.9088 38.918003
-8.2181377 -8.2004595 117.88096 43.64716
-7.8127584 -8.1733646 117.89396 41.571304
-7.435287 -8.168232 117.90675 34.971031
-7.025218 -8.2050343 117.91847 33.555557
-6.65095 -8.0570326 117.92628 32
-5.5763702 -8.2932358 117.71365 50.5065
-4.9378905 -8.1416626 117.91613 40.55175
-4.6792431 -8.2121449 117.95431 41.05175
-3.6880999 -8.2280884 117.90302 40.526001
-3.4074104 -8.2070761 117.86289 42.069233
-2.9442239 -8.1748018 117.85727 41.23077
-2.610724 -8.155529 117.8581 41.828499
-2.3413196 -8.1644955 117.83696 42.388252
-1.3176701 -8.1068554 117.86469 40
-1.1808479 -8.1443577 117.91269 40
-0.064815283 -8.0022631 117.78329 41.054501
-12.121659 -7.7197523 117.97018 42.044498
-10.576835 -7.8501644 117.91504 39.683167
-10.173771 -7.8790512 117.91099 43.727901
-9.7748947 -7.7294469 117.91908 40.174999
-9.4131813 -7.7709837 117.94456 40.854164
-8.9586601 -7.7782016 117.94254 35.25029
-8.5677223 -7.8029504 117.94261 35.482395
-8.1949987 -7.7561774 117.94869 36.27227
-7.7800174 -7.821445 117.94843 38.717545
-7.4045949 -7.7681856 117.93369 38.549534
-7.0178604 -7.745533 117.85989 35.85725
-6.7265911 -7.6340432 117.70605 36
-6.2003937 -7.6893463 117.69102 40.083832
-5.7706099 -7.7193551 117.84344 40.142857
-5.4005122 -7.7066073 117.87878 41.345501
-5.0026555 -7.7460642 117.90218 40.455887
-4.605864 -7.6712933 117.8892 40.693874
-4.1353893 -7.7358971 117.90247 42.27721
-3.738399 -7.7037525 117.90119 40.48148
-3.3969848 -7.7621369 117.8969 40.987415
-2.9968386 -7.7634864 117.89754 40.544384
-2.5941448 -7.7618232 117.87596 40.897953
-2.2119718 -7.8421702 117.8541 40.013374
-1.8405463 -7.8311787 117.82526 40.860085
-1.3829492 -7.7121878 117.85017 39.599998
-1.0212458 -7.6717534 117.86402 39.685165
-0.64273453 -7.6018205 117.82259 43.053501
-0.15102005 -7.6151819 117.86801 43
0.2971445 -7.9097233 117.83746 40.684834
0.63681847 -7.8237534 117.87063 40.8223
0.9835 -7.7661457 117.86602 40.5
-14.046771 -7.3160219 117.98547 41
-13.90085 -7.2543201 117.95722 41.5
-13.219728 -7.4113536 117.91567 41.043999
-11.170382 -7.3772259 117.99205 31
-10.576233 -7.4798279 117.90849 38.183167
-10.069456 -7.3807755 117.96467 38.125252
-9.833519 -7.3456721 117.963 40.812626
-9.4545288 -7.4367795 117.9482 38.857502
-8.9853506 -7.3781662 117.92982 36.857361
-8.5840359 -7.3958831 117.93902 37.804291
-8.1811428 -7.360611 117.94611 38.646305
-7.8073254 -7.3659272 117.96943 36.174335
-7.3843584 -7.3803778 117.92574 37.821735
-6.9960933 -7.4121728 117.87896 34.435017
-6.657764 -7.3727732 117.77067 33.393284
-6.1363583 -7.3804193 117.73759 40.076908
-5.7954559 -7.3896437 117.84381 41.059361
-5.3882546 -7.3452611 117.93172 39.927288
-5.0308642 -7.3169622 117.92408 39.99577
-4.6014843 -7.3311515 117.92954 39.712646
-4.2140169 -7.348208 117.92419 39.938595
-3.7800043 -7.3411794 117.92524 41.023449
-3.4091341 -7.3467617 117.93311 40.215446
-3.0297391 -7.3326807 117.93351 39.806412
-2.587261 -7.3412371 117.92612 39.695614
-2.218009 -7.3296866 117.9127 38.903603
-1.8162695 -7.3427944 117.9037 39.400002
-1.373512 -7.3716111 117.8876 39.625702
-1.0112293 -7.3202443 117.90135 38.773384
-0.63441575 -7.3906865 117.86541 39.363636
-0.2169106 -7.3518362 117.87184 39.200001
0.16744344 -7.391243 117.90379 40.310951
0.52806622 -7.4013076 117.89935 40.555546
0.94996732 -7.3450837 117.88151 40.171249
1.2289183 -7.5618072 117.73708 39
-14.059035 -6.990767 117.78999 41.636215
-13.857948 -6.9747138 117.86013 41.859241
-13.404634 -6.8923192 117.86126 42.130817
-13.024711 -6.8967071 117.86271 41.633904
-12.550943 -6.889379 117.79964 43.494076
-12.199832 -6.889185 117.83282 43.454899
-11.75198 -6.9007144 117.83891 41.976078
-11.382551 -6.9252067 117.87092 42.62569
-10.998836 -6.9033895 117.88524 42.037651
-10.592973 -6.9707322 117.87744 40.711075
-10.16183 -6.9507098 117.8894 40.49588
-9.7994509 -6.9420128 117.91909 38.146122
-9.436326 -6.925283 117.89229 40.234409
-9.030714 -6.9201312 117.87843 40.687538
-8.5761061 -6.94734 117.924 39.676003
-8.1703911 -6.9488897 117.87591 41.438099
-7.817524 -6.9796515 117.9037 43.432621
-7.3937273 -6.9387937 117.92142 41.428104
-7.028964 -6.9920235 117.83325 35.400021
-6.6263061 -7.006845 117.76511 33.939621
-6.145287 -6.9566154 117.73354 40.749718
-5.8166013 -6.9488673 117.88998 41.233536
-5.3888893 -6.9622474 117.92212 40.571194
-5.0087876 -6.9481483 117.91967 40.988159
-4.6123343 -6.9597826 117.91282 41.857647
-4.199368 -6.9363518 117.90633 41.913216
-3.7885628 -6.9442129 117.90769 42.845314
-3.3885458 -6.9464488 117.91428 41.934654
-2.9970858 -6.9219766 117.87904 42.465263
-2.5874748 -6.9452024 117.92374 42.180099
-2.1929429 -6.9157391 117.8904 41.11821
-1.8007753 -6.9361634 117.86553 41.307945
-1.3780887 -6.9227171 117.88479 40.966743
-0.99920779 -6.9056287 117.8685 41.358727
-0.61121029 -6.9284396 117.87457 41.582581
-0.20893741 -6.9274197 117.86416 40.807049
0.18936081 -6.9086261 117.87564 40.307236
0.5896799 -6.9180741 117.87429 40.766918
0.9829663 -6.9370828 117.85163 40.149876
1.3077056 -6.8791599 117.83038 36
-14.094473 -6.6481843 117.81197 40.559818
-13.820842 -6.6595721 117.92747 41.075928
-13.389513 -6.6856451 117.9222 41.384083
-12.964669 -6.6904922 117.93253 41.907345
-12.613943 -6.6356244 117.93925 41.273811
-12.204237 -6.6555595 117.94102 39.530663
-11.789145 -6.6361389 117.94553 39.910435
-11.373178 -6.6807709 117.9568 39.470898
-10.92552 -6.6451406 117.95201 38.193638
-10.572074 -6.6114612 117.96088 36.027946
-10.192113 -6.609374 117.9439 33.643002
-9.7942867 -6.6217642 117.90703 34.009399
-9.4430342 -6.6826072 117.9573 37.333332
-9.0146761 -6.6893435 117.92745 39.175152
-8.6146336 -6.62082 117.92307 41.558487
-8.1602945 -6.643784 117.93489 42.09338
-7.7660227 -6.6220131 117.92678 42.183823
-7.3776269 -6.644731 117.94306 40.166431
-6.9922948 -6.6240377 117.79398 36.034443
-6.6944194 -6.6337781 117.71474 32.573685
-6.1681247 -6.5867758 117.74088 38.692806
-5.8087835 -6.5878801 117.92226 38.482674
-5.411881 -6.5810905 117.96446 38.680904
-5.0141449 -6.6006742 117.96474 39.185547
-4.5848908 -6.5817261 117.95803 39.528706
-4.1848788 -6.5712285 117.96354 39.41917
-3.7994442 -6.5923986 117.96822 39.86845
-3.3957784 -6.5765061 117.97042 39.367439
-3.0167263 -6.6056237 117.96815 39.909843
-2.6149735 -6.6068625 117.96001 39.118355
-2.2081432 -6.6066051 117.95387 40.194489
-1.8141253 -6.6108966 117.95159 39.772484
-1.4192351 -6.5942998 117.94984 39.648769
-1.0086691 -6.5963283 117.94808 39.644051
-0.59582961 -6.5977225 117.94054 39.915939
-0.18972707 -6.6027212 117.941 39.228817
0.20518564 -6.5999532 117.932 38.887756
0.60973674 -6.6053605 117.93224 39.680031
1.0103148 -6.6018257 117.86652 39.85318
1.279482 -6.5802941 117.82687 36.952312
-14.100985 -6.2441387 117.79961 38.059258
-13.842367 -6.269012 117.92826 38.734287
-13.366967 -6.2474918 117.93109 38.775002
-12.974712 -6.2394357 117.9646 39.216667
-12.601013 -6.2240043 117.96729 37.580357
-12.193167 -6.1556787 117.95878 33.994789
-11.798612 -6.1425891 117.95766 34.535786
-11.338136 -6.183454 117.96535 33.708458
-10.984319 -6.0840859 117.93372 32.967251
-10.634176 -6.1198092 117.96511 32.433632
-10.209818 -6.202805 117.92894 32.100403
-9.7640371 -6.1679149 117.94806 30.333418
-9.4193335 -6.1936049 117.99029 32.333336
-8.9977369 -6.2128696 117.89884 36.9105
-8.5204592 -6.21909 117.92636 40.484375
-8.0957375 -6.1685009 117.93444 40.040676
-7.8190761 -6.1773186 117.95858 36.785713
-7.3842373 -6.2260685 117.94548 37.906494
-6.9632778 -6.2095566 117.79317 33.831753
-6.6695051 -6.23172 117.69556 32.635265
-6.1600995 -6.2003312 117.75841 37.10778
-5.8287587 -6.1941772 117.9268 36.453014
-5.4216704 -6.2059822 117.97601 36.405392
-4.9924316 -6.2151003 117.98048 37.401321
-4.5777211 -6.1765823 117.97312 37.613419
-4.2289505 -6.1980453 117.97709 37.438637
-3.8308611 -6.1887555 117.97989 37.487358
-3.3862565 -6.1941843 117.98377 37.454853
-2.9957931 -6.1857162 117.98471 37.2234
-2.5747159 -6.1781535 117.96492 37.045914
-2.2110271 -6.2540812 117.95312 36.673717
-1.7716984 -6.1769581 117.85845 37.538376
-1.3952546 -6.174551 117.91427 37.242374
-1.051035 -6.1931281 117.93671 36.855389
-0.59490871 -6.1835332 117.85851 37.318241
-0.20615096 -6.1783195 117.91193 36.954216
0.21803662 -6.1884265 117.95171 36.691257
0.60415691 -6.1924348 117.93935 36.205246
1.0303774 -6.1897354 117.89344 36.999409
1.3042946 -6.2098646 117.79299 35.035313
-14.087764 -5.8399305 117.79772 35.298489
-13.787563 -5.8238678 117.94289 36.087299
-13.323931 -5.8073215 117.94942 35.985119
-12.935696 -5.7837172 117.98083 35.849998
-12.529794 -5.826386 117.97443 35.452381
-12.189426 -5.7711873 117.96339 32.777779
-11.69818 -5.6848731 117.9777 33.666668
-11.314898 -5.7347074 117.9708 30.750126
-10.994723 -5.7631316 117.97182 30.916834
-10.601626 -5.8238606 117.94293 29.833418
-10.180799 -5.8309689 117.96378 29.75025
-9.7689018 -5.7355342 117.96557 29
-9.5153189 -5.7011433 117.94447 29.0005
-8.9972181 -5.8230982 117.90389 36.316666
-8.5742188 -5.8170319 117.91901 37.665627
-8.1441422 -5.7119002 117.94807 36.262245
-7.7498627 -5.7132072 117.9474 36.64167
-7.3085275 -5.759151 117.96899 35.581917
-6.9604397 -5.7999377 117.76818 32.440704
-6.6489663 -5.8341098 117.69061 32.327831
-6.1661863 -5.8207803 117.73537 35.099617
-5.8522825 -5.8116999 117.93005 35.183876
-5.3828459 -5.7729239 117.97572 35.628971
-4.9965525 -5.7977033 117.97792 35.742817
-4.5971532 -5.8007307 117.98579 35.478973
-4.2211089 -5.8017898 117.98291 36.066994
-3.8034012 -5.7427573 117.98655 35.645836
-3.4302642 -5.7244816 117.99123 35.814812
-3.0542665 -5.7650671 117.9895 35.566666
-2.5794141 -5.806828 117.96405 35.143044
-2.2275906 -5.8401608 117.95601 33.713234
-1.7609879 -5.822598 117.81659 35.705864
-1.4048043 -5.7875843 117.90932 35.406319
-1.0635079 -5.8302364 117.93572 34.277775
-0.57279384 -5.8025155 117.82457 35.558987
-0.1830119 -5.8041968 117.91703 35.278618
0.21566258 -5.8132696 117.96918 35.242767
0.6052233 -5.8230529 117.95946 35.037949
1.0117459 -5.8128757 117.91986 34.801441
1.3109134 -5.8450651 117.86201 32.772224
2.2435722 -5.6405931 117.94299 35
2.5757704 -5.6374135 117.95554 35
3.0222881 -5.6783948 117.78013 35.030502
3.4897501 -5.7197208 117.67688 36.062
3.9107697 -5.6206832 117.89201 34.5
4.1523724 -5.6489301 117.81159 34.724709
4.4553194 -5.666678 117.77747 34.533333
6.1303682 -5.6377244 117.95897 31.333334
6.5461683 -5.6949277 117.93804 31.6
6.9441814 -5.7126455 117.9289 31.6
7.4492192 -5.6795816 117.92352 31.25
7.8552217 -5.7674227 117.77625 31.333332
8.1878061 -5.7868347 117.87852 31.366667
8.5455103 -5.8082538 117.73179 31.166666
10.611969 -5.7075949 117.72685 30.00625
12.177053 -5.755928 117.7445 30.007
14.310598 -5.7921591 117.74956 30.0075
-14.092326 -5.4326863 117.80881 32.566666
-13.768146 -5.4228263 117.95089 33.868687
-13.351387 -5.4595647 117.91218 33.984848
-12.868523 -5.3677406 117.9576 31.310278
-12.485572 -5.4256186 117.97301 32.459999
-12.116508 -5.4160237 117.97474 29.666666
-11.671773 -5.2864747 117.97579 29
-11.3936 -5.4250178 117.94194 28.00025
-11.051294 -5.3331885 117.974 27.5005
-10.635376 -5.482358 117.96361 28.500374
-10.205264 -5.4608612 117.95771 28.333666
-9.7868958 -5.5671196 117.93243 29.000168
-9.023612 -5.4507971 117.92027 32.200203
-8.595233 -5.4415159 117.95792 33.299999
-8.0856609 -5.2679834 117.99818 32.25
-7.6735454 -5.2888737 117.98396 32.830555
-7.3017325 -5.3347836 117.91535 30.296337
-6.9730535 -5.4184589 117.80807 30.517336
-6.624073 -5.3954349 117.68996 30.406542
-6.1752629 -5.406178 117.77206 33.28384
-5.857873 -5.3959513 117.94083 33.301418
-5.3721204 -5.3544984 117.98468 33.190479
-4.9975615 -5.3131609 117.98425 32.993633
-4.6247296 -5.2722745 117.98792 32.606125
-4.2882957 -5.282382 117.98933 32.625
-3.9676733 -5.2963672 117.99738 32.895203
-3.1241171 -5.3261089 117.99713 33
-2.5469563 -5.4230294 117.98167 32.335918
-2.1769948 -5.3928385 117.94183 32.863239
-1.7522382 -5.3950334 117.85969 33.330845
-1.4425822 -5.3780537 117.86945 32.986534
-1.0126684 -5.4050441 117.92315 32.610996
-0.55706602 -5.3735619 117.83932 33.114677
-0.20508161 -5.4152479 117.90359 33.500458
0.22205524 -5.4152551 117.984 33.480476
0.59816837 -5.4204321 117.97348 33.185947
1.0260525 -5.3994455 117.92438 32.575443
1.3015777 -5.4085717 117.85608 31.752747
2.2597208 -5.406724 117.96562 34.099998
2.6153979 -5.4151478 117.93419 33.728943
3.0264103 -5.421803 117.79034 33.704945
3.381161 -5.4008574 117.77282 32.909138
3.8534477 -5.2667351 117.80904 32.063
4.2006721 -5.455956 117.813 33.324387
4.498529 -5.3258548 117.77304 30.926056
5.4809294 -5.4571104 117.95979 29.258499
5.7616754 -5.3497291 117.96053 29
6.1606178 -5.4667721 117.934 29.625
6.6338825 -5.3694482 117.95351 29.5
6.959054 -5.3772588 117.95704 29.5
7.3615665 -5.3999906 117.83463 29.5
7.8455176 -5.4313912 117.77145 29.611109
8.1740103 -5.4656034 117.83304 29.6
8.5887613 -5.4844394 117.67911 29.5
10.521955 -5.2677941 117.75017 28.25625
12.17705 -5.3852496 117.76198 28.507
14.180021 -5.3826056 117.72827 28.5075
-14.091328 -5.0338836 117.81864 29.808477
-13.853817 -5.0348616 117.93554 31.25
-13.399666 -4.9696183 117.94878 30.4375
-12.989662 -5.1339183 117.95879 32
-12.426489 -4.9623556 117.96184 26.5
-12.125708 -4.9647131 117.97636 26.5
-10.608525 -5.1007886 117.98819 26.333418
-10.110764 -5.0825062 117.95078 26.333832
-9.7463989 -5.0911679 117.94403 27
-9.4562616 -5.0904508 117.96164 27.0005
-8.9659433 -5.1117997 117.93826 30.676188
-8.6442509 -5.1337528 117.95717 31.074999
-8.2177267 -5.1821966 117.94851 32.423809
-7.7911482 -5.1929951 117.96521 32.416664
-7.3371658 -5.0229321 117.95934 29.720238
-6.9406328 -5.0081387 117.78183 27.979851
-6.6185813 -5.0121946 117.6812 28.947916
-6.1715159 -4.9897261 117.78284 31.735754
-5.8817973 -4.9682269 117.94057 31.468975
-5.3755112 -4.8660874 117.98662 28.75
-5.0113397 -4.8555312 117.98135 29.130951
-4.5004215 -4.8600726 117.98517 29
-4.2166095 -5.0325623 117.98135 30.6
-2.4899826 -5.0397983 117.91027 27.898624
-2.1436176 -5.1200294 117.96741 29.964287
-1.7529018 -5.073421 117.86633 31.682148
-1.4365984 -5.0587749 117.84174 31.72653
-0.97824883 -5.085309 117.91343 30.358894
-0.59351552 -5.0921888 117.86018 31.405401
-0.19789548 -5.0354886 117.93377 31.884846
0.24963346 -5.030314 117.97836 30.591681
0.58578867 -5.0443468 117.95338 29.552677
1.0469817 -5.0138917 117.89173 30.379152
1.3051621 -4.9748225 117.8717 29.660715
2.2222903 -5.0603638 117.98161 32.5
2.6313505 -4.9951653 117.98934 31.583334
2.9423525 -5.1212058 117.96066 32
3.5357037 -4.887814 117.94446 26
3.7653515 -4.9057255 117.78573 28.625
4.132288 -5.0749993 117.96762 30.872749
4.409677 -5.0379167 117.96784 29.5
5.3896027 -5.1134744 117.95047 28.017
5.613843 -4.8298349 117.98737 26.5
6.2159982 -5.0040183 117.95869 27.450001
6.6410999 -4.9748955 117.9646 27
7.0237093 -4.9976463 117.95821 27.142857
7.4040632 -5.0155621 117.84135 27.5
7.7520447 -5.0250239 117.86957 27.416666
8.1557417 -5.0491171 117.83204 27.388887
8.579217 -5.1159105 117.68202 27.5
9.9923162 -5.0141253 117.8259 28.017
10.474137 -4.8612046 117.8168 26.512501
11.201991 -4.9692264 117.61849 27
12.128277 -4.8842049 117.76194 26.507
14.110052 -4.9747286 117.72591 27.0075
-14.090322 -4.6461353 117.81103 27.677883
-13.825334 -4.6701136 117.92235 29.5
-13.358734 -4.572629 117.91263 26.3505
-13.196386 -4.6885357 117.95216 29.5
-12.609159 -4.6452508 117.98589 25.300625
-12.128558 -4.6095228 117.99445 25
-10.910648 -4.7621717 117.92567 25
-10.097289 -4.6216359 117.9698 25
-9.8023024 -4.6222248 117.96598 25
-9.4368954 -4.6681275 117.99707 25
-9.0095816 -4.7710323 117.96127 26.50025
-8.6359577 -4.6446376 117.9559 28
-8.1999836 -4.6974821 117.95709 28.371429
-7.793057 -4.6003923 117.95527 27.5
-7.3722672 -4.5360246 117.96426 26.473078
-6.9521737 -4.5821953 117.80324 25.67906
-6.5860143 -4.6077929 117.67166 26.873167
-6.1897116 -4.5935822 117.77417 29.222401
-5.9056244 -4.5922499 117.93259 28.634483
-5.4905586 -4.4481792 117.99179 25.363636
-5.0787458 -4.4770417 117.99712 25.5
-2.1350477 -4.7528358 117.99409 25
-1.8170044 -4.6923504 117.98709 23.4
-1.3494561 -4.6216321 117.98043 22.9
-0.9339416 -4.7068272 117.96402 23.550001
-0.56744832 -4.6983714 117.96048 23.811111
-0.19131678 -4.6509829 117.95728 25.852282
0.21382612 -4.6505089 117.96394 26.839394
0.59048259 -4.6412992 117.95858 27.300001
1.0606289 -4.6176667 117.87984 27.565437
1.3118316 -4.5971894 117.84286 28.273451
1.9932191 -4.592248 117.97701 31.056499
2.60023 -4.6499543 117.99151 30.166666
2.9981642 -4.7676477 117.99213 29.5
3.4154685 -4.6267228 117.96362 28.1
3.7579427 -4.5942535 117.91399 27.148333
4.1657109 -4.6347399 117.94435 28.421429
4.5362301 -4.4994769 117.93599 26.25725
5.4269547 -4.5670719 117.98218 25.505667
5.7786012 -4.7696176 117.97163 26.583332
6.1522479 -4.5638571 117.96667 25
6.6483622 -4.6098657 117.97747 24.666666
6.9369221 -4.5485315 117.97771 24.333334
7.3948765 -4.6315708 117.85721 25.5
7.8448563 -4.6924024 117.78464 26.016668
8.2088547 -4.609437 117.8192 25.125
8.6184597 -4.6498713 117.71023 24.888887
10.386563 -4.6071463 117.66292 25.75
10.505993 -4.5101509 117.71773 25.25625
10.987468 -4.5898685 117.61803 25.5
11.395278 -4.5332394 117.67466 25.001499
12.118414 -4.5115471 117.78181 25.007
12.654706 -4.6537409 117.77875 26.011
13.193141 -4.7956991 117.65681 26.0035
13.232099 -4.5467739 117.69073 25.0035
14.078202 -4.5641594 117.72787 25.5075
15.441714 -4.7410846 117.64198 26.004
-14.081778 -4.2415528 117.80817 25.056314
-13.836692 -4.093049 117.87199 23.926874
-13.418406 -4.1544991 117.80117 23.050333
-13.004936 -4.1692095 117.77834 20.330624
-12.594511 -4.1368494 117.80857 21.782034
-12.230384 -4.0915942 117.85709 21.739874
-11.789494 -4.0848999 117.77787 18.091543
-11.433162 -4.0845804 117.84253 20.619381
-11.006855 -4.1221204 117.80289 18.734793
-10.633924 -4.0863261 117.81583 16.740082
-10.176558 -4.0945749 117.90309 17.85075
-9.7597828 -4.1089668 117.88401 17.815563
-9.3209763 -4.0942369 117.90157 16.05825
-8.9464684 -4.1631603 117.88319 21.257126
-8.6183167 -4.1605306 117.94637 20.65
-8.216114 -4.2001224 117.94388 23.444723
-7.8103585 -4.0927448 117.84859 21.177982
-7.3772421 -4.1065822 117.92274 20.767578
-6.9295754 -4.2245102 117.80424 22.883524
-6.6045327 -4.2363248 117.70173 24.318817
-6.1877551 -4.214972 117.77144 25.777884
-5.8588772 -4.169589 117.9028 26.048988
-5.4033909 -4.078752 117.87195 21.320486
-4.9795766 -4.0633607 117.856 19.348711
-4.5663528 -4.0409698 117.85427 20.695751
-4.142714 -4.0644393 117.82111 18.958624
-3.7932906 -4.0603447 117.80906 20.055199
-3.4254689 -4.0665503 117.91068 19.410625
-2.9757533 -4.0599198 117.91711 19.005327
-2.6438875 -4.0506964 117.82982 19.759127
-2.2232339 -4.061626 117.83186 20.019072
-1.7842636 -4.0842252 117.86518 19.760534
-1.3450538 -4.0758605 117.84736 20.032885
-0.94876146 -4.1615615 117.94889 20.682333
-0.58670527 -4.1331425 117.94134 20.600435
-0.20727319 -4.1547489 117.91512 21.73089
0.21042989 -4.1526923 117.91763 21.307123
0.60173053 -4.1614914 117.926 20.870617
1.076611 -4.2121263 117.83384 23.7969
1.302641 -4.2092686 117.76231 23.676308
7.030735 -4.2164359 117.97559 22.285715
7.4358373 -4.2965779 117.86627 23.75
7.8449898 -4.3090458 117.8208 24.166666
8.2644186 -4.2538919 117.75443 23.583334
8.5627003 -4.2768817 117.64156 23.125
10.398547 -4.236186 117.81849 24.012501
10.51104 -4.152235 117.66937 24
10.87656 -4.2172065 117.71061 24.005249
11.441188 -4.1460633 117.74342 23.003
12.127087 -4.2569761 117.78712 24.007
12.497955 -4.2613392 117.7528 24.511
13.204806 -4.2912822 117.68167 24.0035
14.024435 -4.1547489 117.72707 24.0075
15.358277 -4.1878996 117.64197 24.004
-14.057404 -3.8873985 117.85854 25.018499
-10.050335 -3.9367921 117.979 21.000999
-9.6097946 -3.7874813 117.99506 23.0005
-8.8699036 -3.712502 117.99289 21.0005
-8.2196436 -3.7150164 117.98728 21.000999
-6.9104185 -3.9170685 117.86115 22.166668
-6.5509872 -3.8009923 117.68172 21.68968
-6.2306962 -3.7597468 117.77064 25.464106
-5.9217291 -3.8050132 117.98344 29.4
-5.3754501 -3.9972913 117.92425 20.062
-3.9099998 -3.8423774 117.995 29
-3.312156 -3.9407749 117.98822 20.557501
-2.583693 -3.9099417 117.9856 25.779375
-1.4185984 -3.969274 117.99444 17.0765
-0.51937413 -3.9288502 117.99534 29
-0.1204567 -3.8843255 117.98077 19.5065
0.53776646 -3.6215508 117.98547 23.007
1.0291486 -3.8896856 117.97403 25.75
1.2471437 -3.9817936 117.89439 19.5
8.1554384 -3.9304674 117.89403 21
-12.579979 -3.2835078 117.95561 18.101999
-9.5281725 -3.5967512 117.95815 21.000999
-6.2222795 -3.4088378 117.77683 26.4098
-5.8602343 -3.2222066 117.9793 29
-5.99052 -3.1860795 117.94482 29
1.1219034 -3.0623326 117.89473 20.008499
-11.427373 -8.4944859 118.03711 45.044998
-10.97953 -8.4296808 118.05135 52
-10.22987 -8.5828896 118.00522 35
-9.8653603 -8.6285992 118.00642 34
-7.3655701 -8.4453773 118.06291 31
-11.278443 -8.2210312 118.00847 50.043999
-10.915182 -8.1805429 118.06635 37.011124
-10.592144 -8.1673651 118.01119 42.522247
-10.192213 -8.1526699 118.05306 32.400002
-9.7948694 -8.147006 118.02695 32.599998
-9.4041338 -8.1642532 118.02651 32
-9.0503197 -8.1165066 118.01829 32
-8.6688919 -8.124445 118.01565 32.5
-8.1820745 -8.1663313 118.01034 31.667665
-7.8802662 -8.13764 118.01396 31.5
-7.0938497 -8.0965023 118.01855 32
-12.430767 -7.7474241 118.02406 42
-11.524402 -7.826539 118.04024 33
-11.106192 -7.8401403 118.02625 32.25
-10.656792 -7.7835245 118.01841 32.266666
-10.247476 -7.7794304 118.03867 32.111111
-9.8027859 -7.7506323 118.03681 32.276924
-9.3832865 -7.7595 118.02634 32.533333
-9.0040417 -7.7458496 118.03658 32.714287
-8.6856184 -7.7534971 118.03114 32.299999
-8.256855 -7.7524772 118.02786 32.555557
-7.8588586 -7.7460647 118.02386 31.9
-7.4183068 -7.7843509 118.03577 37.422222
-7.0844393 -7.798316 118.04628 31
-6.7043066 -7.680582 118.06602 31
-4.9785566 -7.7042837 118.13202 38
-4.7769108 -7.694428 118.00836 40
-14.021749 -7.3317919 118.02717 47.056
-13.45732 -7.2576084 118.07084 40
-12.418371 -7.3014703 118.04893 40.333332
-12.13845 -7.45577 118.05811 36.333332
-11.937033 -7.3034568 118.02309 41.7715
-11.436545 -7.339148 118.08508 33.174084
-11.003561 -7.3633485 118.09132 31.818182
-10.594418 -7.4191327 118.09317 31.555555
-10.206 -7.3602424 118.07214 31.333445
-9.8170137 -7.3709779 118.05997 32.184212
-9.3867159 -7.3931246 118.0544 32.215233
-8.9987402 -7.3806081 118.055 32.02
-8.5634193 -7.3678708 118.04208 32.723484
-8.2144709 -7.3806891 118.04836 32.126984
-7.8096161 -7.3808784 118.0416 32.019611
-7.4203362 -7.3288674 118.04321 31.559525
-7.1301069 -7.3372259 118.04793 30.200001
-6.7320943 -7.334373 118.03384 29.501251
-4.1929116 -7.3800087 118.00523 38
-13.786712 -6.9787107 118.06075 41.442928
-13.399251 -7.0417953 118.04047 40.041534
-12.977098 -6.9888272 118.07092 41.196545
-12.519547 -7.0281706 118.06277 40.844082
-12.184875 -7.0255914 118.04226 40
-11.810294 -7.0307541 118.06587 38.441074
-11.37639 -6.9833307 118.08886 35.006355
-10.986329 -7.0191483 118.08811 32.788929
-10.637624 -6.9726033 118.06996 33.40625
-10.24763 -6.9782519 118.08577 32.371262
-9.7906284 -7.0032916 118.07577 32.453678
-9.4090853 -7.0261579 118.06219 33.372753
-9.0050697 -7.0213699 118.05606 33.083206
-8.6230583 -6.9934134 118.05648 32.727077
-8.210825 -7.0016356 118.05547 32.057873
-7.8180351 -7.003149 118.04961 32.693188
-7.4156785 -6.9736967 118.04584 32.371738
-7.0157838 -6.955204 118.05121 30.25
-6.7306795 -6.9900331 118.08406 30
-6.2677579 -7.0235672 118.01399 29.001999
-5.8388472 -7.0498772 118.0011 33.5
-5.3806071 -7.1290808 118.01413 37.5
-4.9705448 -7.1051722 118.03941 36.5
-4.6645789 -6.8821864 118.00623 36.333332
-4.1695962 -6.9602251 118.01562 37.064571
-3.8135262 -6.9036717 118.00922 37.333332
-2.7680607 -7.077239 118.02444 37.5
-2.2625542 -6.8270187 118.05032 44.094501
-1.4249878 -6.928473 118.00671 39.365334
-0.6724906 -6.8068137 118.02387 42.097
0.25268078 -6.8221374 118.09805 43.087502
0.65505141 -7.0016809 118.01721 38.666668
-14.029706 -6.5932436 118.01619 38.166664
-13.770663 -6.6202178 118.05092 39.437981
-13.334583 -6.6161532 118.05045 39.238728
-12.969707 -6.6358652 118.052 39.703949
-12.571372 -6.6307955 118.05114 39.03389
-12.20621 -6.6447725 118.06126 37.182541
-11.780468 -6.6449914 118.05804 37.965061
-11.382808 -6.6365862 118.07605 35.30518
-10.978103 -6.6315794 118.08691 34.004456
-10.586733 -6.6172872 118.08301 34.294037
-10.223251 -6.6184568 118.07581 33.474075
-9.8375788 -6.6179957 118.07458 33.645226
-9.4165096 -6.6086016 118.07561 32.800972
-9.0120974 -6.6015587 118.07098 33.230171
-8.6088343 -6.6035423 118.07112 32.298161
-8.2024546 -6.582365 118.06555 32.587719
-7.810154 -6.6003137 118.05988 32.896812
-7.4167671 -6.5908842 118.05729 32.645912
-7.0341043 -6.5742364 118.06116 29.704998
-6.6956706 -6.5612969 118.06944 29.25
-6.1380072 -6.4360409 118.03342 44.578999
-5.7338514 -6.630249 118.01566 44.318336
-5.3790832 -6.6140866 118.01057 39.993366
-5.0130472 -6.6328216 118.01298 39.249996
-4.6414847 -6.5682983 118.01502 36.907215
-4.1682673 -6.6166401 118.02197 39.539009
-3.7821407 -6.5929689 118.02215 39.967262
-3.4022279 -6.5922995 118.0291 41.348446
-2.9694073 -6.5425425 118.0274 39.04945
-2.5894196 -6.5736527 118.03302 39.170002
-2.1694539 -6.5359507 118.04449 40.670834
-1.8454742 -6.6002464 118.05641 40.072754
-1.3663175 -6.6144347 118.07343 40.777378
-1.0019062 -6.6645164 118.05096 43.48333
-0.66702908 -6.64395 118.08883 42.269035
-0.22702105 -6.6819177 118.13025 41.975483
0.26374057 -6.6100411 118.06805 41.589024
0.56030315 -6.5709844 118.05768 39.353569
0.89603806 -6.5587001 118.08917 39.615383
-14.048177 -6.1908979 118.03555 36.125
-13.79044 -6.2418556 118.07346 37.204571
-13.379829 -6.2173634 118.0666 36.813408
-12.940907 -6.2154474 118.07583 36.930771
-12.580924 -6.2820973 118.0743 37.692219
-12.162173 -6.2498078 118.08102 35.870773
-11.772033 -6.2397022 118.08408 34.474545
-11.400595 -6.2205319 118.08881 33.224548
-10.991808 -6.2246475 118.0885 32.839603
-10.603407 -6.1912341 118.0927 32.507187
-10.214935 -6.2066636 118.0908 32.611332
-9.8174887 -6.2066531 118.08679 32.106701
-9.4218292 -6.1962924 118.08926 31.952934
-9.0062447 -6.1819391 118.08537 31.936089
-8.6170931 -6.1748171 118.08041 31.221794
-8.2022343 -6.1653495 118.07386 31.454201
-7.8109217 -6.1768579 118.07201 31.561975
-7.3987999 -6.1928058 118.06311 32.250744
-7.0490561 -6.1838989 118.0487 29.4
-6.7306738 -6.3064699 118.11708 29
-5.7138572 -6.210382 118.01631 38.897903
-5.3888469 -6.187067 118.01674 37.271999
-5.0307679 -6.2072277 118.01864 36.741146
-4.6177568 -6.2029238 118.02672 36.461544
-4.1952019 -6.1776991 118.02588 36.271915
-3.7752023 -6.1648974 118.01861 36.532272
-3.4070139 -6.1591067 118.02392 36.344448
-2.9971349 -6.1706004 118.02657 36.479664
-2.6295433 -6.1418695 118.02695 36.692711
-2.3130209 -6.1978917 118.01881 37.542488
-1.3169488 -6.1789083 118.04168 38.149719
-1.098452 -6.1633835 118.00753 35.604168
-0.45065928 -6.3885531 118.01712 42
-0.04801321 -6.1615129 118.03791 39.015152
0.18571319 -6.213954 118.06444 37.636051
0.52802938 -6.1043 118.04736 37.164623
0.91314393 -6.1783557 118.04989 37.370373
1.3506227 -6.0087261 118.02484 35
12.645618 -6.0156517 118.18642 31
-14.03371 -5.8195229 118.03326 34.148148
-13.785315 -5.8552494 118.09699 34.892445
-13.368252 -5.8468828 118.08151 34.391666
-12.995227 -5.8431821 118.08282 34.733822
-12.585718 -5.8318334 118.07914 34.361778
-12.179332 -5.8045859 118.08224 34.282475
-11.779945 -5.7881517 118.09786 32.591358
-11.384702 -5.7863011 118.11642 31.641407
-10.987016 -5.7906218 118.11983 30.321951
-10.587327 -5.7770033 118.11024 30.669544
-10.204268 -5.7973452 118.1203 30.320723
-9.8068457 -5.7957315 118.11983 30.10248
-9.4177771 -5.7963381 118.12155 29.722271
-9.0145674 -5.7938986 118.11626 29.822725
-8.6085052 -5.7773147 118.10966 29.410929
-8.1959276 -5.7767076 118.10288 29.514359
-7.8109889 -5.7736373 118.09962 29.592396
-7.4014058 -5.7882223 118.0867 30.220476
-7.032567 -5.7856841 118.08629 28.831249
-6.6965723 -5.8534708 118.07204 28.2005
-6.2651877 -5.8601232 118.08273 28.676834
-5.7345057 -5.8227367 118.02645 35.829967
-5.4242635 -5.8241339 118.02442 35.549034
-5.004766 -5.8218994 118.0247 35.367561
-4.5883284 -5.8198237 118.02669 35.366253
-4.1787806 -5.8173528 118.02818 35.153038
-3.8078966 -5.8150201 118.02646 35.19035
-3.4030826 -5.8103533 118.03098 35.084049
-2.9992697 -5.8003707 118.02919 34.922977
-2.5810161 -5.8061972 118.0265 35.147327
-2.2998085 -5.8382931 118.02579 33.777779
-1.3605133 -5.733809 118.02989 33.997486
-1.0968598 -5.7925687 118.01998 34.444447
-0.08554139 -5.7912364 118.01743 35.002857
0.16740914 -5.7485032 118.04473 33.383335
0.55665249 -5.7439632 118.03693 33.797436
0.90407521 -5.7773995 118.04944 34.261906
1.3091781 -5.6841364 118.05507 34.0555
2.1642752 -5.6354728 118.00487 35
5.3031893 -5.7207808 118.13913 33.5
5.7609529 -5.7075095 118.14557 33.25
6.2112865 -5.637013 118.11425 31.820501
7.1612172 -5.8157315 118.05252 32
7.3939042 -5.7453175 118.04463 31.5
7.8208137 -5.7212133 118.04394 31.25
8.036768 -5.8557181 118.01131 32
10.168732 -5.8164349 118.11475 30.916666
10.662642 -5.7702026 118.1702 30.25
11.094662 -5.784483 118.17789 30.25
11.470488 -5.6294127 118.21567 29.5
11.932799 -5.7948079 118.17879 30.166668
12.292567 -5.8796835 118.17557 30.5
12.565224 -5.7667422 118.1559 30
-14.034455 -5.4130335 118.0415 31.482143
-13.805227 -5.4565358 118.10838 32.545341
-13.373816 -5.4541969 118.09263 32.06345
-12.967621 -5.4162674 118.10238 31.979862
-12.564958 -5.403235 118.0861 31.492388
-12.162112 -5.3980198 118.08536 31.066803
-11.789637 -5.4180865 118.10087 30.508928
-11.39266 -5.4200921 118.11485 30.464153
-10.983304 -5.4096308 118.10989 29.766703
-10.578461 -5.3958821 118.11766 29.206015
-10.201243 -5.4072719 118.1196 29.307419
-9.8237648 -5.4001818 118.12474 28.704596
-9.4288721 -5.4005127 118.12425 28.715494
-9.027195 -5.3996973 118.11555 28.75507
-8.6154661 -5.3863235 118.11903 28.148195
-8.2006969 -5.3749719 118.10265 28.210766
-7.8188877 -5.3995528 118.10246 28.600483
-7.4043493 -5.413022 118.0873 29.311001
-7.0624676 -5.3938575 118.0745 27.881945
-6.6967268 -5.4611998 118.09148 27.75
-6.3704042 -5.3354001 118.0408 27
-5.7478256 -5.4231625 118.02827 33.833939
-5.4032755 -5.4180002 118.03774 33.718822
-5.014461 -5.4144526 118.04233 33.7542
-4.6009779 -5.4244547 118.04695 33.808144
-4.2085943 -5.4157848 118.05122 33.596962
-3.7962151 -5.4131947 118.05027 33.647606
-3.3950193 -5.4057393 118.05016 33.413303
-2.9900877 -5.4087439 118.04444 33.082317
-2.5891151 -5.3956952 118.03938 33.189682
-2.2420185 -5.4133382 118.03368 32.895599
-1.8164777 -5.3869262 118.05434 33.673042
-1.3273859 -5.3864512 118.02222 33.435234
-1.0437146 -5.4069939 118.04424 31.768272
-0.11066771 -5.3514757 118.01465 33.345154
0.20877434 -5.3902974 118.04663 32.258373
0.61653811 -5.3599749 118.03127 32.881702
0.94356346 -5.3882875 118.02011 32.472343
1.3403751 -5.3721466 118.04292 34.683834
2.1681442 -5.286067 118.02681 33.5
3.9105954 -5.2995033 118.01166 32
5.3868279 -5.3508592 118.12003 30.546898
5.7562289 -5.3455944 118.1536 30.833332
6.2246718 -5.2871919 118.12302 29.528833
7.1879964 -5.4817805 118.07014 30
7.3726163 -5.3781548 118.04906 29.333334
7.8689227 -5.45753 118.04503 29.75
10.12107 -5.4735894 118.09756 29.333334
10.703451 -5.2852769 118.19007 28
11.132341 -5.2886348 118.19624 28
11.444649 -5.2911587 118.2067 28
11.88999 -5.2944126 118.20537 28
12.329777 -5.4178505 118.19415 28.5
12.64473 -5.4221411 118.19049 28.5
-14.032894 -4.9896245 118.08328 30.181818
-13.799185 -5.0448852 118.11159 30.128275
-13.382444 -5.0505376 118.10526 30.108137
-12.956814 -5.0034022 118.09975 28.881454
-12.55382 -5.0254645 118.09123 28.975063
-12.155665 -4.9856825 118.10961 28.479319
-11.778172 -5.0143156 118.11646 28.073809
-11.398085 -5.0035758 118.13403 28.13324
-11.000778 -4.9701142 118.13744 27.343277
-10.613605 -4.9830804 118.13548 27.193724
-10.222834 -4.9739594 118.14746 27.198685
-9.8043118 -4.9718547 118.14506 27.048874
-9.4039917 -4.9740691 118.1448 27.108791
-9.0120964 -4.9739394 118.1378 26.999779
-8.6105242 -4.9599962 118.13578 26.68177
-8.2128735 -4.959568 118.12493 26.638599
-7.8035488 -4.9739556 118.12584 27.007105
-7.3876266 -4.9825773 118.10935 27.43803
-7.0352063 -4.9483681 118.11376 26.884251
-6.7107987 -4.9629188 118.11938 27.200703
-6.3019052 -5.0027184 118.10867 29.333334
-5.7574234 -5.0222735 118.03936 31.761351
-5.4103913 -4.9928131 118.05082 32.033916
-4.9907656 -4.9838066 118.05582 32.137726
-4.5891314 -5.0044503 118.05979 32.232948
-4.1949944 -5.0000596 118.06384 32.038712
-3.8005254 -4.9929657 118.06465 32.120121
-3.3889959 -4.9937558 118.06316 31.855968
-2.9946055 -5.0026789 118.06011 31.659391
-2.5916634 -4.9890952 118.05527 31.435167
-2.2267635 -4.9309382 118.05414 31.168451
-1.7933091 -4.90165 118.04707 32.430553
-1.3578283 -4.9653678 118.03566 31.699301
-1.0471077 -4.928618 118.03896 31.20336
-0.53482139 -4.8778839 118.03488 31.893694
-0.12325884 -4.9618988 118.02854 31.410578
0.21696143 -4.9838138 118.03539 31.264975
0.61426604 -4.9791002 118.02985 31.350126
0.96009415 -4.9683719 118.02798 31.657322
1.2865542 -4.97892 118.03401 33
2.0866866 -5.0027046 118.02913 32.278252
2.4336135 -5.0549483 118.01003 31.5
3.9459758 -4.9019718 118.03137 29.35
4.2741466 -4.8510914 118.09829 28.5
4.4723315 -4.8501153 118.02788 29
4.8917851 -4.8163557 118.09918 27.75
5.3609061 -4.909833 118.11983 27.85
5.7415934 -4.9067941 118.20782 27.912251
6.2550311 -4.904635 118.13699 27.028833
7.177319 -5.0651646 118.06279 27.5
7.388391 -5.0668249 118.09885 27.545
7.7684464 -5.06499 118.06293 27.5
8.0633202 -5.1505189 118.02733 28
10.170992 -5.0269222 118.12684 27.041666
10.714767 -4.9699807 118.19296 26.5
11.178871 -4.9658689 118.21399 26.5
11.456169 -4.9632001 118.20963 26.5
11.886173 -4.9593253 118.20211 26.5
12.336927 -4.9551592 118.19555 26.5
12.712015 -4.9518619 118.21523 26.5
-14.045467 -4.6296768 118.06922 27.366669
-13.799666 -4.6357632 118.13132 27.718019
-13.370477 -4.631259 118.10479 27.765503
-12.985861 -4.6124697 118.11188 26.519474
-12.563288 -4.6177659 118.10258 26.501923
-12.162374 -4.6105313 118.10975 26.60722
-11.763841 -4.62081 118.12469 26.645205
-11.381036 -4.6048746 118.14337 26.314728
-10.987982 -4.5881743 118.15527 25.623777
-10.584018 -4.5810647 118.14452 25.676435
-10.19496 -4.5727992 118.16306 25.333818
-9.8123951 -4.5771661 118.15369 25.413895
-9.4036512 -4.5854082 118.14774 25.585022
-9.018836 -4.5676489 118.15627 25.140661
-8.608078 -4.5677834 118.15009 25.354801
-8.1994591 -4.582634 118.14686 25.281111
-7.8031273 -4.5853343 118.13649 25.41234
-7.3827453 -4.5833454 118.12245 25.633144
-7.0557685 -4.5882998 118.11099 25.66762
-6.666914 -4.6295938 118.14684 26.25
-6.3458772 -4.6558232 118.04715 27
-5.7726068 -4.598155 118.04721 30.595531
-5.4040427 -4.5944729 118.07278 30.260569
-5.0048823 -4.5922484 118.08069 30.659624
-4.6076918 -4.5901895 118.08659 30.888065
-4.2079034 -4.589931 118.08443 30.283573
-3.7983425 -4.5978155 118.08364 30.292952
-3.406456 -4.5972991 118.08276 29.915833
-3.0123234 -4.5872464 118.07735 29.837103
-2.6035566 -4.5923843 118.07345 29.860544
-2.1976321 -4.589366 118.06866 29.637568
-1.8060805 -4.5985398 118.06595 29.880192
-1.403342 -4.582479 118.0631 29.886141
-1.0039046 -4.5890403 118.0527 30.037783
-0.61148691 -4.5916014 118.05206 30.022373
-0.21812202 -4.579762 118.0472 29.888454
0.2210339 -4.5746317 118.04598 29.778612
0.61104751 -4.5727019 118.04107 30.332647
0.97271174 -4.5821347 118.0332 30.757069
1.3154837 -4.5308709 118.0407 31.678572
1.6180418 -4.7573285 118.04303 32.056999
2.1979468 -4.74891 118.00546 31.333334
2.5862973 -4.6343207 118.01274 29.571428
3.0132725 -4.564178 118.02968 28.666668
3.3398688 -4.6106286 118.01933 28.5
3.9053998 -4.5378017 118.07505 26.597
